ply
format ascii 1.0
element vertex 1387
property float x
property float y
property float z
end_header
981.967848 193.662951 1502.889008
215.809666 423.662026 3023.880242
195.392676 312.379012 2220.303398
231.893372 311.880703 2207.318124
452.742346 286.553319 1966.582183
486.657224 286.090312 1954.516825
539.042966 246.328522 1652.086246
742.903117 304.904373 2025.524289
779.403813 304.406063 2012.539015
952.005900 324.362069 2113.303367
991.092419 323.828458 2099.398176
893.635757 280.534221 1809.732524
927.550635 280.071213 1797.667166
1029.295268 278.682190 1761.471091
1063.210146 278.219183 1749.405732
552.087323 338.993766 1921.575137
586.002201 338.530759 1909.509779
653.831956 337.604744 1885.379062
687.746834 337.141736 1873.313704
772.081040 289.765813 1560.806860
801.470733 289.364584 1550.351354
549.687666 392.823236 1912.764166
583.602544 392.360229 1900.698808
617.517422 391.897221 1888.633450
651.432299 391.434214 1876.568091
737.737883 420.771700 2006.558774
678.029662 368.184305 1746.585280
710.005176 367.747773 1735.209859
787.091810 389.582183 1828.306658
821.006688 389.119176 1816.241299
837.907232 366.001648 1689.708172
869.882746 365.565117 1678.332750
1058.410833 385.878123 1731.783791
975.729420 333.604334 1479.982979
411.628498 448.504737 1952.214629
479.458254 447.578722 1928.083912
513.373131 447.115714 1916.018554
485.768429 352.294614 1485.956131
512.572304 351.928687 1476.420541
643.791711 419.372161 1749.653571
675.767225 418.935629 1738.278150
844.657354 477.210436 1958.120194
881.158050 476.712126 1945.134920
954.159442 475.715508 1919.164372
990.660138 475.217199 1906.179098
753.807183 348.635336 1390.600233
780.611059 348.269408 1381.064643
1027.497880 414.133785 1613.148511
393.732331 579.984079 2267.357858
432.818850 579.450468 2253.452667
440.567080 540.625502 2091.475450
477.067776 540.127192 2078.490176
510.973475 500.945184 1907.207583
138.127345 570.537213 2069.805387
133.525016 442.137544 1595.991686
547.312827 639.887499 2201.582549
586.399346 639.353888 2187.677358
712.063084 551.996609 1826.004462
745.977962 551.533601 1813.939104
779.892840 551.070593 1801.873745
875.992816 592.579454 1926.169405
847.722596 550.144578 1777.743029
881.637473 549.681571 1765.677670
1058.496296 590.087907 1861.243035
1094.996992 589.589598 1848.257761
467.786722 527.013748 1627.185197
497.176415 526.612518 1616.729692
526.566109 526.211289 1606.274187
605.028888 572.062666 1736.107601
637.004402 571.626135 1724.732180
709.663428 605.826079 1817.193491
743.578305 605.363071 1805.128133
1137.960586 611.709574 1704.261689
686.871925 902.299036 2561.434149
733.069444 901.668345 2544.999190
735.548513 850.610287 2387.107378
779.160214 850.014898 2371.592335
773.881828 799.062744 2216.460269
814.907710 798.502657 2201.865142
870.827581 708.446781 1907.203890
907.328277 707.948472 1894.218616
943.828973 707.450163 1881.233342
1046.412549 655.025473 1687.728937
1080.327426 654.562465 1675.663578
-27.721611 475.419634 1356.963224
522.407157 619.505544 1591.003500
670.949236 713.948026 1811.636908
704.864114 713.485019 1799.571550
-28.499896 495.962429 1312.007355
295.485924 772.870580 1935.544879
329.400802 772.407572 1923.479521
520.327681 666.152672 1583.368157
1007.698357 763.147420 1682.172354
1041.613235 762.684413 1670.106995
-29.186701 514.453128 1267.387380
530.490412 823.458997 1842.276400
564.405289 822.995989 1830.211042
598.320167 822.532981 1818.145683
722.433628 32.048816 1234.706866
1030.175268 139.320931 977.124883
964.698908 414.827374 3188.378073
487.900431 184.113784 1377.120101
1006.443936 176.848139 986.431868
690.241406 360.297638 2296.012950
623.720946 219.405409 1266.215322
643.664927 219.125961 1251.188852
699.709519 255.535378 1200.389955
1386.838287 -84.112492 1532.703061
1410.291334 -84.138983 1505.996967
1456.912377 74.358069 1404.874808
746.808964 119.737847 699.356190
770.916680 119.710617 671.904622
807.078255 119.669772 630.727269
803.011467 146.836944 627.128905
762.783105 174.044962 664.707895
774.836963 174.031347 650.982110
810.998538 173.990502 609.804757
23.668389 12.483656 54.929832
715.293569 -178.661056 293.077673
708.435135 -157.106678 304.879513
533.365939 -1.357685 621.893717
1425.347750 -356.660941 895.458494
1752.995488 -412.935050 827.211028
1786.655329 -412.851776 757.302659
2053.718295 -444.810897 552.492785
1985.845289 -430.761389 1300.886477
2052.017255 -381.539407 551.749127
1149.925832 -244.293574 1286.018502
858.091548 -151.228614 495.190565
866.701123 -151.207314 477.309276
1766.669928 -295.522917 790.877337
1305.320030 -186.109613 785.547467
1318.532999 -186.076924 758.105357
1479.374750 -204.539195 772.977137
1493.902974 -204.503252 742.803363
1522.959422 -204.431367 682.455816
1537.487645 -204.395424 652.282042
831.842579 -87.678674 458.495131
1594.246837 -164.297542 792.435767
1609.761502 -164.259159 760.213246
1625.276167 -164.220775 727.990725
1640.790832 -164.182392 695.768203
2205.010453 -216.312700 831.243641
2225.457326 -216.262114 788.777381
2517.028414 -202.361203 2268.223495
2935.125064 -215.857484 1922.333335
406.528445 -25.949452 120.813187
1544.894876 -67.690675 1670.611577
1541.570002 -61.323206 1242.522722
1558.399922 -61.281569 1207.568537
1622.367287 -56.022763 726.719027
1934.641000 -65.451304 774.145928
1952.786176 -65.406413 736.460080
1763.659049 -3.755126 1907.275091
1664.769798 -3.357270 1678.052069
1684.230229 -3.309125 1637.634558
1403.707535 -2.461120 1177.198473
1392.856150 -1.588457 591.286627
1437.434999 55.797467 1450.868322
1454.264919 55.839104 1415.914137
1417.767760 51.676269 1144.340103
1464.311756 51.791419 1047.672539
1391.617485 44.484626 590.745111
1469.517099 114.565990 1380.270200
1385.283990 105.698509 1208.149296
1400.798655 105.736892 1175.926775
1875.102352 124.228493 884.972499
1893.247528 124.273384 847.286652
1911.392704 124.318275 809.600804
1639.836346 200.167780 1716.076896
1036.167584 122.511906 975.998104
1764.530257 187.230636 1110.343928
1782.675433 187.275527 1072.658080
1490.977766 214.165204 981.319950
1506.492431 214.203587 949.097429
1424.894360 200.627578 858.735090
1599.580423 214.433886 755.762303
1615.095088 214.472269 723.539782
2299.666663 269.662440 341.083961
2319.127094 269.710585 300.666450
1742.983001 313.728725 1146.542461
1761.128177 313.773616 1108.856614
838.091721 212.734077 946.689298
1423.263512 355.959483 1546.924650
1440.422246 356.001934 1511.287550
1457.580981 356.044384 1475.650450
1361.285731 328.800875 1329.821440
1377.129210 328.840072 1296.916003
1480.036060 349.348619 1342.557003
1496.865980 349.390256 1307.602819
1513.695901 349.431893 1272.648635
1597.845503 349.640079 1097.877713
1614.675424 349.681716 1062.923528
1631.505344 349.723353 1027.969344
1596.671543 322.631899 754.490605
1612.186208 322.670282 722.268084
810.113065 240.523321 916.002901
1478.458320 408.033867 1341.867250
1495.288240 408.075504 1306.913066
1562.607922 408.242053 1167.096328
1579.437843 408.283690 1132.142144
782.196060 266.019443 885.343456
1326.628243 439.213616 1394.333664
1342.471722 439.252812 1361.428227
1358.315201 439.292009 1328.522790
1392.072015 430.330931 1172.111681
1317.748935 403.013280 1067.569821
1485.160006 430.561230 978.776554
1500.674672 430.599613 946.554033
754.340705 289.222444 854.710963
1424.813078 525.279452 1445.350297
1441.642999 525.321089 1410.396113
1706.732029 607.506749 1549.621484
1726.192460 607.554894 1509.203973
1525.792601 525.529275 1235.625191
1542.622522 525.570912 1200.671007
1609.942204 525.737460 1060.854269
1626.772124 525.779097 1025.900085
1265.926189 382.209163 568.209893
1278.152716 382.239411 542.816530
726.547000 310.132325 824.105422
1498.590515 629.502591 1632.740195
1516.735691 629.547482 1595.054348
1404.677801 538.567327 1138.617462
1557.874702 584.297797 1165.027069
1574.704623 584.339434 1130.072885
1482.251127 538.759243 977.504856
1497.765792 538.797626 945.282335
2004.120041 698.780461 1099.680295
2024.238100 698.830233 1057.896952
1726.173907 584.714168 815.485225
1743.003827 584.755805 780.531041
-452.241323 -314.549558 1462.870203
-422.538244 -314.157168 1468.175359
-449.359180 -358.349205 1683.410754
-415.435190 -357.901055 1689.469792
-429.593367 -401.925787 1906.966710
-391.448469 -401.421876 1913.779629
-308.239942 -513.048199 2494.421653
195.196632 -349.834344 1798.532475
229.120622 -349.386194 1804.591513
426.739828 -371.825660 1965.616439
-874.807476 -295.916395 1509.843383
-842.692447 -295.492141 1515.579329
-700.729416 -288.279220 1509.564203
-578.818310 -366.731603 2001.897283
-96.729903 -168.212064 958.659565
-14.015757 -49.693779 283.279435
150.095699 -277.039452 1661.526918
181.607741 -276.623164 1667.155167
229.054628 -297.346484 1801.111944
-1453.035738 -408.727805 2499.099272
-700.790718 -239.939461 1506.332026
-822.238275 -307.731674 1954.275139
-781.681430 -307.195901 1961.518847
-627.143703 -274.266734 1769.957540
-146.495381 -91.416219 603.445632
55.498273 -229.948557 1641.409995
150.034397 -228.699694 1658.294742
-637.827937 -190.767128 1514.356347
-606.315896 -190.350840 1519.984595
-354.465965 -124.248419 1002.514604
-448.755690 -188.269401 1548.125839
-417.243648 -187.853114 1553.754088
-385.731607 -187.436826 1559.382336
-85.908402 -120.700658 1050.480673
-65.250128 -120.427753 1054.170371
-40.255299 -109.635003 964.892651
-21.405985 -109.385995 968.259256
-0.640313 -81.211506 721.989488
149.973095 -180.359935 1655.062565
-354.506152 -92.558439 1000.395693
-385.792909 -139.097068 1556.150160
-278.874697 -119.747004 1356.946523
-115.127912 -117.583839 1386.192729
-87.836781 -117.223311 1391.067096
-38.845275 -78.138354 932.031973
-14.693015 -59.881670 718.045879
-2.352622 -77.656271 938.549790
446.411653 -189.603701 2453.243681
492.395383 -188.996236 2461.456664
-663.691698 -107.527775 1752.286828
-627.355762 -107.047761 1758.776655
-448.878294 -91.589884 1541.661485
-417.366252 -91.173597 1547.289734
-385.854211 -90.757309 1552.917983
-34.567724 -32.078686 588.566177
-448.939596 -43.250126 1538.429308
65.845077 -44.287221 1972.059615
191.367249 -45.479062 2118.728231
441.719582 -54.284495 2691.503922
446.232744 -48.524782 2443.810618
492.216474 -47.917317 2452.023601
-388.198493 4.405415 1329.051334
-360.907362 4.765943 1333.925701
-258.185455 4.635502 1135.267114
-295.393783 10.306225 2027.643844
135.557532 14.511836 1887.609093
171.893469 14.991850 1894.098919
208.229405 15.471863 1900.588746
244.565342 15.951877 1907.078573
370.743246 16.981267 1836.612511
405.270224 17.437383 1842.779247
-353.502696 42.179330 1208.702005
-304.370781 39.415898 1124.659837
-281.300558 39.720666 1128.780324
38.279085 106.504676 2887.511895
121.040627 85.985582 2314.449860
260.170326 59.386174 1565.820906
289.873405 59.778564 1571.126063
349.279565 60.563345 1581.736377
-726.738862 75.414254 1139.496476
-1232.896435 132.665125 2006.295896
-1189.324654 133.240727 2014.078090
-353.551095 80.344226 1206.150158
-304.415660 74.805830 1122.293534
-281.345438 75.110598 1126.414021
149.605283 109.678616 1635.669504
181.117324 110.094903 1641.297752
289.815622 105.343359 1568.079431
293.973597 97.148293 1445.312043
-709.052876 110.825927 1109.296233
-1145.837636 200.655838 2017.391145
-1057.471680 210.785696 2125.621465
-1012.090938 211.385195 2133.726751
-741.755764 191.056424 1935.483366
-701.198920 191.592198 1942.727074
-292.772456 98.400159 998.751323
-272.114182 98.673064 1002.441021
69.381126 201.771894 2080.357515
99.009537 181.250796 1869.938381
228.460681 171.010906 1769.795819
262.384672 171.459056 1775.854857
280.771275 162.739445 1686.691215
312.886304 163.163699 1692.427161
345.001332 163.587952 1698.163107
-691.364544 144.387624 1079.219686
-1273.335169 297.112211 2236.199121
-1224.939491 297.751539 2244.842894
-721.477036 210.502399 1596.663187
-687.553046 210.950550 1602.722225
-393.470776 187.447967 1439.967560
-363.767697 187.840357 1445.272716
159.067997 280.822328 2215.247266
180.994720 206.774420 1634.833399
244.282597 238.910507 1892.170726
-673.673866 176.099345 1049.266835
-1321.824994 370.712294 2222.591424
-1273.429316 371.351622 2231.235197
-958.816589 317.457688 1919.115915
-917.656757 318.001427 1926.467320
-393.528559 233.012762 1436.920927
-363.825480 233.405152 1442.226084
102.776408 220.219130 1402.793751
149.421377 254.697891 1625.972973
184.301240 259.996178 1662.895327
370.407411 281.804755 1818.905424
404.934388 282.260872 1825.072159
-655.980841 205.961090 1019.437681
-829.381428 399.595733 2029.919260
-786.412635 400.163370 2037.593757
-393.586342 278.577556 1433.874295
102.723318 262.083974 1399.994511
184.238765 309.260924 1659.601302
316.813098 351.349850 1897.696456
353.149034 351.829863 1904.186283
-638.285471 233.972860 989.732223
-911.429452 511.240076 2224.857803
-864.239748 511.863472 2233.286180
-393.644125 324.142351 1430.827662
149.298773 351.377408 1619.508619
170.714389 331.597771 1531.625642
316.742412 407.089507 1893.969494
353.078348 407.569521 1900.459321
319.229787 333.559724 1558.151426
348.932867 333.952115 1563.456582
-620.587755 260.134654 960.150461
-304.684939 287.145423 1108.095716
-281.614716 287.450191 1112.216203
96.604877 733.972570 2949.213149
154.648346 734.739349 2959.580077
149.237471 399.717166 1616.276443
170.656606 377.162566 1528.579009
298.616895 493.040728 2009.048527
337.364780 493.552604 2015.969143
432.661760 471.973962 1941.466757
-602.887693 284.446472 930.692395
-26.860609 53.005489 181.085675
-93.319636 572.916214 2026.423294
89.833708 763.161235 2728.948437
-585.185284 306.908315 901.358026
-567.480530 327.520182 872.147353
-582.068702 -154.991896 1864.875133
-652.979260 -98.788015 1855.620560
320.963612 -13.871289 628.113873
971.804185 -240.234851 1216.716719
982.712246 -240.159337 1207.041091
993.620307 -240.083823 1197.365463
329.083734 -77.593136 446.696629
950.284722 -218.253833 1236.575152
972.100844 -218.102805 1217.223896
402.753471 -77.083138 381.350370
333.171989 -61.832281 443.617912
950.878040 -173.989743 1237.589506
1730.058673 6.120298 1898.465237
288.225480 55.850712 487.593432
246.796140 -77.256187 529.353667
267.991602 -82.603534 562.580679
280.477846 -85.155143 576.458658
250.689102 -71.864480 474.796388
279.340539 -75.831006 488.668475
285.180471 -76.407999 489.292878
282.356212 -74.685007 475.248792
293.004712 -76.517693 483.816299
290.405532 -74.896875 470.557038
307.838122 -78.409050 489.454579
301.399859 -75.843205 470.400874
310.768181 -77.261843 476.094747
306.140057 -75.216495 460.486098
326.886194 -79.369256 482.718679
322.584775 -77.427508 467.823721
326.523639 -77.482729 465.066713
330.462503 -77.537951 462.309704
318.473080 -73.904049 437.717481
319.922544 -73.429258 431.990940
334.826441 -76.014762 444.176682
332.554889 -74.695610 433.515350
355.874726 -79.082508 455.831354
349.759173 -76.917280 440.321389
363.880827 -79.194751 450.227483
363.451043 -78.297513 442.046626
367.405954 -78.352960 439.278385
362.805892 -76.605071 426.477273
356.498246 -74.536177 412.044205
366.936323 -75.969812 416.989303
390.495503 -80.062992 436.310527
400.820830 -81.396028 440.392176
390.075467 -78.472733 421.526047
400.443584 -79.806369 425.577746
401.207939 -79.222946 419.388304
409.006427 -80.025444 420.526626
408.609158 -79.227681 413.265378
246.621000 -69.776390 528.720149
273.223959 -76.119831 573.257439
273.448229 -75.053638 561.788595
281.422554 -69.105851 492.106314
281.814590 -68.309341 483.347971
284.092702 -67.984834 477.982784
285.263232 -66.575461 462.080983
304.695766 -70.234134 484.300090
303.641673 -69.150018 473.726035
312.616285 -70.345177 478.756122
313.148063 -69.639741 470.842660
324.008111 -71.217785 478.323731
319.225970 -69.368505 462.817806
321.788241 -69.137097 458.196414
323.868447 -68.809815 452.969752
334.556626 -70.296328 459.628356
342.180715 -71.116106 461.833119
348.026414 -71.554514 461.512118
332.704032 -67.686120 433.588031
356.032514 -71.666757 455.908247
355.697112 -70.860048 447.659075
364.038615 -71.779000 450.304376
371.983632 -72.603278 452.284505
357.101839 -69.008399 426.880033
376.047766 -71.947365 441.898570
382.594757 -72.484705 442.029243
384.053867 -72.059608 436.294699
382.861979 -71.151776 427.702331
412.003833 -75.837691 452.552029
402.425266 -73.386506 434.747503
410.241234 -74.119860 435.875267
404.609982 -72.436906 422.849063
412.988251 -73.267258 424.525937
434.138520 -76.326236 438.944164
246.445465 -62.316417 528.086482
285.895211 -71.185474 599.478932
290.089937 -71.165080 595.599889
281.576758 -61.858550 492.181461
294.557802 -63.070133 495.353117
295.595737 -61.738293 478.597252
297.835563 -61.452895 473.257862
298.778362 -60.911712 465.997571
304.303940 -61.305978 465.901566
308.157224 -61.360000 463.204459
322.429386 -63.460884 475.844399
324.653166 -63.175262 470.516241
323.720450 -62.290992 460.797168
324.020543 -61.661601 453.043871
332.889824 -62.657139 457.207744
344.181151 -64.082642 464.390947
351.913903 -64.824650 466.521654
334.739422 -61.019873 436.112057
350.467342 -63.220369 448.675983
351.994930 -62.845790 442.892255
364.196403 -64.363249 450.381270
370.171280 -64.763814 449.970778
380.673677 -65.940647 454.877363
387.285947 -66.429351 454.963671
382.753600 -65.019410 442.106651
379.582468 -63.866156 431.125602
388.214705 -64.699978 433.569657
384.341994 -63.457685 422.136736
393.568794 -64.379039 425.107495
407.188546 -65.995578 432.546655
384.206299 -61.713383 401.487712
405.497713 -64.546279 416.757848
413.336594 -65.210578 417.871400
246.269482 -54.876255 527.452554
306.019192 -67.146461 641.251770
313.619911 -67.807325 643.476895
275.706429 -48.498722 414.418743
319.111684 -55.481751 470.807711
299.852203 -50.430861 419.210499
246.093104 -47.455916 526.818476
293.356470 -55.718702 614.492660
304.191770 -56.939386 623.889882
245.916278 -40.055390 526.184137
288.124182 -46.236631 603.274116
292.345047 -46.246344 599.376102
245.739056 -32.674685 525.549648
298.125986 -39.065190 623.860318
296.997188 -38.376966 608.603962
74.560710 -8.520751 126.216205
245.561387 -25.313795 524.914897
303.056567 -30.803154 633.848241
308.883987 -30.973777 632.601848
272.274008 -24.146960 457.121134
245.383322 -17.972725 524.279998
305.619318 -22.092288 638.889719
308.729169 -22.037242 631.990977
300.358004 -19.749649 533.965297
298.766334 -19.431395 520.913307
289.554858 -18.631455 495.250942
285.550871 -18.180732 479.165304
319.393538 -19.523287 497.031142
245.204809 -10.651471 523.644836
293.255025 -12.601410 612.817857
296.855222 -12.622431 607.463887
327.653926 -13.014948 582.127700
318.689696 -12.545656 555.339143
293.246013 -11.442805 501.354362
303.619531 -11.745320 509.207947
299.638070 -11.493148 493.101535
297.078096 -11.300177 479.778859
309.258215 -11.667291 490.146620
309.904837 -11.597815 482.136678
313.865097 -11.653336 479.364694
319.546344 -11.772256 479.166737
326.577186 -11.939550 480.858142
327.509654 -11.883899 473.592817
332.830206 -11.987945 472.702708
336.827907 -12.043991 469.904516
341.282618 -12.116263 467.731137
345.285668 -12.172385 464.929201
345.547173 -12.097509 457.188822
353.291769 -12.284628 459.325331
351.554148 -12.142455 449.205607
351.623134 -12.064881 441.600056
356.986478 -12.169527 440.679994
362.876329 -12.291371 440.336025
366.809844 -12.346517 437.582760
366.702320 -12.266469 430.100757
370.082546 -12.304041 426.790072
370.872957 -12.256217 420.568875
363.781515 -11.950627 405.694674
245.025900 -3.350035 523.009525
310.753649 -4.254386 648.976934
304.279688 -4.166730 622.326369
325.453869 -4.467632 566.874401
304.801288 -4.184114 520.855965
300.593772 -4.127102 503.957902
303.024757 -4.161560 498.476700
290.277587 -3.986708 468.657727
358.465006 -4.942015 427.544333
375.446456 -5.177643 440.225785
363.086041 -5.007365 418.640389
373.605055 -5.153615 423.561451
366.535929 -5.056485 408.666372
244.846544 3.931584 522.373953
299.056185 4.652450 624.313623
286.176476 4.322721 585.125645
314.382779 3.737166 547.424588
293.561589 3.388697 501.508149
295.970305 3.314903 496.041459
292.064668 3.079489 471.365570
302.939802 3.097123 479.821254
303.969624 2.922592 463.977891
309.954872 2.888710 464.514347
322.097819 2.908580 473.972869
244.666792 11.193385 521.738231
309.832107 13.586111 633.063886
289.716327 10.860569 504.386978
290.178421 10.674832 495.554817
294.133332 10.619385 492.786577
300.108904 10.635197 493.330982
310.642340 10.806204 501.084722
311.390911 10.636369 492.997487
313.734629 10.523840 487.575366
317.737680 10.467719 484.773430
324.756869 10.508734 486.478174
325.743780 10.355476 479.169559
329.746831 10.299354 476.367624
331.962143 10.188625 471.035305
337.752931 10.187111 470.763753
343.128834 10.171495 469.837079
343.907107 10.021160 462.674427
351.635367 10.072154 464.828377
355.659812 10.015733 462.011466
361.600332 10.012119 461.635035
363.708703 9.902890 456.377644
363.815381 9.742052 448.739629
371.757594 9.790047 450.743822
369.276641 9.565900 440.190011
377.783435 9.625896 442.744398
372.586441 9.340239 429.364598
378.559053 9.336175 428.965703
384.574456 9.331511 428.536858
388.524018 9.276140 425.772362
389.278541 9.146056 419.571779
389.431044 9.004496 412.847208
385.706172 8.777869 402.218632
244.486593 18.435368 521.102248
326.951742 23.722375 667.643551
244.305998 25.657535 520.466115
331.991783 33.608402 677.595910
244.124955 32.859882 519.829721
313.514373 40.725272 639.677366
243.943517 40.042415 519.193177
326.167011 51.696050 665.119310
243.761630 47.205126 518.556372
321.863547 60.213859 656.061368
243.579349 54.348024 517.919417
315.128615 67.952327 642.070336
-60.723344 -65.173913 548.856873
-55.445173 -64.341271 541.677154
-29.119003 -65.347741 549.235740
-24.569674 -65.337328 548.992417
-19.876170 -64.916304 545.292677
-6.325665 -64.967339 545.257628
-1.823027 -65.285262 547.775805
2.727228 -64.946618 544.773431
7.231717 -64.608086 541.773566
11.690440 -64.269651 538.776087
16.171120 -64.259395 538.536436
20.470591 -63.593110 532.788595
24.565039 -62.599059 524.292657
29.101770 -62.998956 527.498715
33.496640 -62.988896 527.263654
38.392388 -63.880309 534.588983
42.030106 -62.559082 523.358532
49.985842 -67.710415 566.386796
52.518137 -64.832648 542.110347
57.591920 -65.477484 547.356917
63.053790 -66.449661 555.341732
63.462147 -62.099745 518.763525
73.704780 -67.738182 565.807946
75.880768 -65.435622 546.378731
79.676814 -64.770482 540.657755
81.942957 -62.960063 525.362252
77.883505 -56.568967 471.779442
73.502542 -50.588891 421.662566
85.672355 -56.469083 470.673118
82.837305 -52.044536 433.578650
88.184525 -53.099027 442.259302
94.777008 -54.807117 456.391294
95.469953 -53.000295 441.179903
104.821604 -56.097026 466.889942
101.652902 -52.329692 435.331263
-60.656765 -58.210189 548.200324
-59.935834 -61.949856 583.341030
-29.535754 -59.165984 556.192872
-24.756353 -58.788249 552.488305
-19.889898 -58.043520 545.330142
-10.117192 -54.940069 515.836307
-6.280960 -57.718930 541.843075
-1.860719 -58.662480 550.573912
2.714477 -57.771701 542.051764
7.196153 -57.468003 539.052872
11.721605 -57.751084 541.570014
16.157514 -57.447491 538.573570
20.366586 -56.557550 530.071004
24.551780 -55.961097 524.328843
29.326955 -56.830480 532.350944
33.921053 -57.113397 534.864354
38.742987 -57.689233 540.124766
41.863133 -55.701394 521.333563
46.383114 -55.911126 523.161186
49.495802 -54.436822 509.198946
55.115647 -55.891137 522.694124
60.593719 -56.978983 532.747945
66.722460 -58.505495 546.905716
42.973703 -34.278000 319.855818
53.685228 -40.709082 379.984343
80.439096 -58.474098 546.172077
90.352953 -62.266078 581.510848
68.396769 -39.941815 372.299582
68.381473 -38.107872 355.055673
96.600844 -47.946757 446.667863
113.125099 -54.217814 505.105898
102.875463 -47.345521 440.813948
-60.590159 -51.263866 547.543741
-63.159777 -57.412630 613.215501
-10.694221 -30.522491 324.817545
-2.389467 -57.273529 609.965180
2.693351 -52.735559 561.404859
7.182547 -50.656099 539.090005
11.260916 -48.318935 514.037812
15.400484 -47.792166 508.297749
19.290202 -46.813332 497.742161
24.226809 -48.612566 516.793498
26.452602 -44.663092 474.594502
-60.523511 -44.334932 546.887003
-63.697727 -50.106576 618.114635
-60.456835 -37.423396 546.230231
-64.161242 -42.631318 622.320426
-60.390117 -30.529250 545.573302
-69.031530 -37.337450 667.471084
-60.323364 -23.652499 544.916279
-70.094125 -29.380690 677.232949
-60.256584 -16.793144 544.259223
-71.157213 -21.180413 686.996203
-37.362283 -18.604254 603.760660
-29.417695 -17.040199 552.960795
-24.492991 -16.817164 545.796728
-19.595831 -16.530662 536.563922
-60.189762 -9.951182 543.602010
-69.455426 -12.268558 671.078640
-34.055666 -10.103508 553.936193
-29.633672 -10.143302 556.460109
-24.680191 -10.007172 549.294038
-20.391624 -10.109668 555.275657
-15.093216 -9.723165 534.288873
-11.032203 -9.975932 548.564071
-6.671861 -10.165619 559.372692
-2.006636 -10.105023 556.362682
2.612823 -10.044533 553.355180
7.207918 -10.034015 553.109410
11.714444 -9.923866 547.347458
16.196606 -9.863689 544.347239
20.880641 -9.940323 548.927553
25.362432 -9.892626 546.617491
30.013624 -9.919418 548.439072
34.302391 -9.822246 543.378845
38.647258 -9.762384 540.386029
42.741893 -9.653178 534.646109
46.972346 -9.593579 531.659413
50.906802 -9.484739 525.928059
55.295952 -9.474693 525.693304
59.981094 -9.513885 528.203146
65.030883 -9.602160 533.453974
68.719715 -9.481403 527.045620
72.396739 -9.373153 521.328035
75.110301 -9.154796 509.450987
78.860584 -9.083816 505.799835
-60.122905 -3.126614 542.944703
-68.350888 -3.788394 660.712112
-30.618044 -3.233052 573.114057
-24.694005 -3.090903 549.331741
-20.260640 -3.095883 551.855235
-15.595347 -3.070076 548.845096
-10.747670 -2.994685 536.853052
-6.839732 -3.159714 568.391467
2.606623 -2.983028 539.589592
7.193964 -3.048169 553.147491
16.048665 -2.952259 538.870640
20.956754 -3.012884 551.721200
57.896217 -2.705190 509.026021
62.785688 -2.724255 514.285795
66.997880 -2.710831 513.370321
70.834061 -2.683140 509.714343
75.097355 -2.673381 509.486319
77.514120 -2.599773 496.934170
-60.056021 3.680560 542.287362
-71.657519 4.710748 691.302446
-33.625749 4.335784 624.388824
-28.250207 4.318597 619.960050
-21.434868 4.049122 579.563497
-59.989095 10.470338 541.629864
-71.749630 13.397271 692.043941
-25.520807 11.052888 565.325714
-19.911070 10.630137 542.937541
-16.019164 10.992963 560.675974
-11.143984 10.827163 551.441927
-6.666683 10.946310 556.724490
-2.024133 10.902488 553.715196
2.569273 10.967450 556.230502
7.123671 10.814529 547.703889
11.750133 10.920404 552.288197
16.272549 10.876307 549.285328
20.771659 10.845769 546.973921
25.405532 10.897213 548.796847
30.243238 11.017184 554.060134
34.855495 11.027741 553.813446
39.105007 10.928570 548.064126
43.314048 10.842918 543.007186
47.613358 10.798311 540.016250
51.866898 10.753598 537.027701
56.074677 10.708781 534.041660
59.940901 10.608733 528.312840
62.998590 10.384324 516.415015
67.996469 10.504661 521.669675
71.628152 10.404077 515.953460
75.846100 10.400119 515.037585
80.155159 10.409983 514.807113
83.706325 10.322826 509.785422
86.721430 10.179993 502.031354
86.977008 9.731374 479.239303
89.739983 9.601577 472.188998
85.306234 8.720245 428.249870
-59.922141 17.242725 540.972334
-73.936431 22.721055 712.226014
69.349161 17.494002 532.677566
71.615049 16.963766 515.989219
75.833015 16.951111 515.073296
-59.855145 23.997715 540.314647
-74.552887 31.901731 717.829510
-59.788115 30.735310 539.656865
-72.475249 39.798399 698.435515
-59.721057 37.455515 538.999050
-71.519553 47.931470 689.455503
-59.653957 44.158322 538.341079
-71.162433 56.293829 686.030191
-59.586829 50.843739 537.683075
-70.730240 64.503591 681.909842
-59.519660 57.511757 537.024914
-73.069629 75.358853 703.488611
24.129966 56.362371 520.120467
-233.554482 -65.656854 517.547061
-230.604741 -65.991035 522.130946
-226.110737 -65.900101 523.355719
-221.325227 -65.724493 523.903917
-220.265540 -66.648330 533.264651
-204.445767 -65.698037 531.528117
-194.945608 -64.009119 519.753419
-189.517039 -63.584184 518.208938
-169.904112 -63.975054 531.114038
-169.909400 -65.550624 546.232441
-161.031811 -63.795528 533.532050
-157.437662 -64.037893 537.535538
-151.340649 -63.284341 533.149275
-146.927639 -63.195046 534.351974
-140.196877 -62.113572 527.114410
-140.912019 -64.254918 547.331309
-132.962314 -62.597373 535.134058
-123.122952 -59.956306 514.379809
-119.592457 -60.199966 518.366012
-114.537693 -59.703818 515.963635
-115.402840 -62.242066 539.919629
-109.181184 -61.170894 532.543316
-103.538970 -60.347769 527.277083
-99.270593 -60.261400 528.440366
-94.325750 -59.767477 526.008032
-89.568272 -59.356120 524.280655
-89.929685 -62.278043 552.153910
-80.310093 -58.617373 521.511877
-77.367947 -59.424344 530.629626
-75.043089 -60.795219 544.871098
-62.653025 -54.242659 487.768414
-54.980433 -50.936480 459.619743
-50.975042 -50.540341 457.687396
-40.607596 -43.949932 399.277458
-45.193978 -51.920054 473.626794
-38.018429 -47.993747 439.294717
-233.379480 -58.554521 516.845380
-235.288231 -60.056125 532.201225
-228.030358 -59.282274 527.375238
-223.501643 -59.190638 528.609472
-223.832967 -60.381662 541.371230
-203.238568 -58.223302 528.083887
-197.442416 -57.757690 525.883521
-190.933238 -57.068651 521.609455
-169.125157 -56.697044 528.308950
-167.379103 -57.497704 537.856846
-161.164976 -56.814636 533.502369
-153.931803 -57.225605 541.521706
-150.046673 -57.355985 544.848502
-143.420374 -56.455583 538.338394
-140.484504 -56.953506 545.186566
-131.094856 -54.882537 527.333541
-122.545495 -53.037565 511.519470
-120.910793 -54.049477 523.305044
-111.704841 -51.773226 503.133931
-114.900176 -55.042501 537.039110
-99.377427 -49.642810 486.081519
-103.078954 -53.340329 524.384824
-72.278395 -39.619938 390.650762
-92.285547 -51.937609 514.474349
-85.415361 -50.335616 500.470701
-77.549193 -48.016810 479.178452
-233.204155 -51.470402 516.143833
-239.673532 -53.781403 541.597055
-224.297142 -51.290173 518.571305
-218.822828 -51.906103 529.135387
-212.618248 -51.417204 526.290251
-202.029609 -50.839601 524.639987
-198.890689 -51.078878 529.275516
-193.379715 -50.725130 527.753361
-174.734534 -51.316786 544.930989
-168.403331 -50.704214 540.608413
-160.431609 -49.573978 530.684822
-150.785340 -49.136559 530.289743
-150.181748 -50.274949 544.818394
-143.553539 -49.474691 538.308712
-134.049283 -47.647305 520.486690
-233.028458 -44.404485 515.442306
-218.958598 -44.788652 529.105124
-211.070309 -44.011625 522.182717
-207.990111 -44.206554 526.802285
-203.507677 -44.115854 528.023905
-199.025244 -44.025154 529.245525
-193.513575 -43.707822 527.723525
-232.852439 -37.356780 514.740914
-205.633318 -35.408683 497.210141
-206.714080 -36.235077 511.280138
-206.750489 -36.913307 523.366656
-199.159799 -36.971430 529.215534
-195.707275 -37.070943 533.180562
-232.676047 -30.327280 514.039542
-237.661883 -31.458479 536.117883
-222.611155 -29.990679 513.758449
-214.689772 -29.431562 506.844854
-212.352238 -29.616915 512.774170
-211.337682 -29.995217 522.123122
-196.923418 -29.570609 523.027384
-191.462427 -29.327163 521.491504
-188.204903 -32.717781 601.007081
-177.130261 -32.327512 600.245116
-160.576940 -30.895779 579.807256
-153.459730 -30.352937 572.674559
-144.410838 -29.405412 557.751864
-232.499334 -23.315990 513.338304
-195.738349 -22.451508 519.576724
-190.305612 -22.245066 518.033171
-186.179343 -22.185700 519.913733
-216.126840 -26.676346 633.475160
-201.893313 -25.471459 608.624618
-182.605871 -23.585225 567.006339
-232.322247 -16.322906 512.637088
-197.189401 -15.627032 522.968099
-192.759036 -15.537386 524.175529
-189.589724 -15.548360 528.819492
-182.787890 -15.831315 551.842740
-172.668865 -15.266060 536.455280
-166.400120 -15.019047 532.115273
-161.963969 -14.929284 533.324280
-169.807425 -15.959207 575.037782
-232.144839 -9.348031 511.936005
-194.946768 -8.553953 516.781343
-190.568470 -8.465360 517.974583
-183.161511 -8.244522 510.920478
-178.225976 -8.345712 537.971684
-172.803420 -8.212336 536.425288
-169.214828 -8.163376 540.427537
-163.838553 -8.030937 538.868528
-160.839358 -8.011644 544.978352
-157.140846 -7.960460 549.010558
-153.396051 -7.908340 553.055378
-149.410449 -7.845434 556.409799
-143.502632 -7.684498 552.727448
-136.760983 -7.477122 545.492024
-132.993049 -7.424534 549.543150
-125.922358 -7.192760 540.129259
-121.509349 -7.103465 541.331958
-115.178457 -6.904401 533.984588
-110.834871 -6.816510 535.168367
-106.491285 -6.728620 536.352146
-101.435360 -6.596749 533.949741
-97.667438 -6.544161 538.000927
-92.806041 -6.422139 536.301532
-85.238489 -6.115263 518.706383
-81.790201 -6.080969 524.182511
-76.796460 -5.938529 520.251042
-72.422494 -5.838197 519.930985
-68.479547 -5.770241 522.517692
-231.967058 -2.391363 511.234943
-197.455385 -1.683455 522.908813
-189.666495 -1.567373 515.202597
-189.857445 -1.513745 528.759820
-183.950156 -1.228126 569.685482
-174.493687 -1.103853 556.385206
-168.112243 -1.000280 552.075776
-159.490675 -0.886513 540.060157
-155.008242 -0.795813 541.281777
-151.929268 -0.711154 547.413403
-231.788929 4.547096 510.533959
-193.888092 5.190986 513.302510
-187.470545 5.222430 509.002851
-186.705753 5.410125 519.796401
-180.004333 6.382224 573.036144
-170.866384 6.321097 560.404986
-159.625230 6.167211 540.030166
-154.316972 6.225414 538.452487
-151.262355 6.373333 544.577536
-231.610479 11.467348 509.833108
-200.101683 12.404638 529.005595
-195.619250 12.495337 530.227215
-191.136817 12.586037 531.448835
-163.320787 11.842937 492.908338
-177.459969 13.697729 564.663685
-169.260754 13.521093 554.800852
-163.795598 13.546041 553.265900
-157.550241 13.501142 548.919307
-153.807531 13.662509 552.963662
-149.238318 13.754965 554.208932
-142.397853 13.636471 547.000128
-137.347619 13.674434 546.108274
-131.443577 13.622627 541.668598
-127.007427 13.712390 542.877604
-118.750296 13.387064 527.737937
-114.286870 13.455971 528.198324
-109.989566 13.542925 529.369490
-108.667733 13.997849 544.851477
-100.680015 13.624254 528.126217
-96.960447 13.785153 532.164265
-90.960501 13.628243 523.970338
-88.251784 13.939960 533.781628
-85.883606 14.330422 546.524445
-78.311572 13.884188 527.417614
-73.337325 13.834976 523.480651
-68.341586 13.764792 518.793494
-62.277933 13.459308 505.324279
-56.718456 13.207850 493.985941
-54.420554 13.661116 508.977857
-231.431656 18.369391 509.132279
-201.559486 19.584166 532.395404
-194.718317 19.447946 527.454998
-188.993630 19.411203 525.234744
-181.340442 19.718641 531.100937
-231.252511 25.253228 508.431583
-196.663214 26.032372 519.370579
-191.225614 25.983905 517.828111
-186.087541 25.968998 516.960080
-231.072993 32.118855 507.730908
-196.795338 32.958641 519.341130
-191.357043 32.873758 517.798816
-188.245878 33.180364 522.427235
-230.893154 38.966277 507.030367
-200.639903 40.619533 528.885631
-195.119898 40.499869 527.365489
-191.675036 40.800933 531.328871
-230.712941 45.795487 506.329847
-200.774457 47.673257 528.855640
-196.292024 47.763957 530.077260
-189.525597 47.298357 525.116173
-230.532381 52.606489 505.629405
-202.236602 55.080382 532.244480
-197.465519 55.100872 532.788664
-191.944146 54.908381 531.268888
-230.351500 59.399288 504.929096
-198.652312 61.062641 522.642028
-197.600768 62.191012 532.758518
-193.095194 62.282180 533.986444
-442.350818 -91.738412 513.168317
-408.802710 -514.056406 2019.635220
-114.318511 -370.491564 1552.710589
-77.213647 -368.777472 1565.419287
-1479.200067 -437.791115 1402.744294
-1434.546999 -435.728327 1418.038310
-1389.893931 -433.665539 1433.332325
-263.771388 -100.718068 364.286913
218.987305 -296.914012 1661.108386
-857.691718 -288.471957 1286.575648
-820.586854 -286.757865 1299.284346
-783.481990 -285.043773 1311.993044
-497.600314 -322.429514 1732.015543
-452.947246 -320.366726 1747.309559
69.929886 -245.619656 1604.293105
-285.511157 -68.210716 353.521991
-1436.552633 -431.438167 2526.750901
-489.385145 -81.063954 521.855313
-213.022971 -38.158206 2674.646110
54.937476 -10.341311 1258.692931
84.494137 -8.975915 1268.816312
-314.229805 42.559141 1997.334409
-263.915586 44.883451 2014.567412
123.703931 56.350841 1910.146300
168.356999 58.413629 1925.440315
288.675749 149.303277 2196.020899
338.989969 151.627587 2213.253902
-1174.368223 192.865491 2001.004602
-1116.505803 195.538496 2020.822921
36.239577 216.534146 2101.746339
77.515380 194.248583 1880.458100
189.544468 423.761552 3006.444820
236.631378 304.683804 2162.568805
75.979897 334.209113 1866.063915
120.632965 336.271901 1881.357931
299.245237 344.523052 1942.533993
-708.061024 164.716185 659.436864
-730.447882 198.191127 648.351521
114.806778 754.629289 2947.736575
133.407710 536.592438 2103.774164
-149.588667 533.835967 1768.002561
-104.935599 535.898755 1783.296577
-68.714243 606.147617 2026.732607
105.033061 797.042265 2702.322263
72.007665 137.354543 377.978224
-126.180815 395.877454 917.777781
-102.285307 396.981329 925.962174
36.508685 163.308509 363.086744
48.742842 -19.146762 69.480603
1843.637046 -548.887127 1666.462532
1873.341030 -547.928857 1627.251898
1459.138419 -373.926316 909.393224
1710.935749 -399.869523 806.940901
1777.576749 -397.719641 718.971694
684.716052 -151.928512 264.660172
2078.220104 -422.087074 552.040559
1020.294779 -314.143695 1312.134848
1960.723347 -440.743909 1276.010307
1017.751454 -265.835514 1311.388759
1037.052220 -265.212858 1285.910854
1056.352986 -264.590203 1260.432948
1761.510720 -312.571177 959.958484
1785.388902 -311.800851 928.438177
1727.295080 -287.955048 775.900452
1183.875952 -228.246037 1259.646013
1391.162913 -243.105535 1214.887798
1413.376580 -242.388907 1185.564729
1053.237520 -157.047003 631.048867
621.993255 -90.159017 342.047651
854.443005 -156.949979 1290.240184
1051.297376 -120.195707 630.479723
1066.020725 -119.720722 611.044219
620.875631 -68.930748 341.719794
852.119018 -112.807940 1289.558438
2489.913468 -241.475572 2264.828391
2929.854348 -240.483087 1912.248666
1138.669622 -90.363349 683.135948
1064.080581 -82.869426 610.475074
833.979405 -63.892058 457.894148
636.720842 -47.155246 319.000209
1064.858386 -66.343972 324.245162
1077.501092 -65.936111 307.556204
1090.143798 -65.528249 290.867247
1534.104955 -96.238517 1638.503552
729.929068 -38.681338 592.822950
741.323387 -38.313750 577.781921
1463.440595 -64.666674 877.501312
1152.536710 -49.872190 661.435114
832.477938 -35.373044 457.453690
1525.088052 -62.677887 796.123813
1545.637204 -62.014958 768.997980
1607.284661 -60.026171 687.620481
1826.654741 -61.976217 625.850347
1848.868408 -61.259589 596.527278
1765.705168 -57.172187 535.450155
1786.670448 -56.495833 507.775013
1144.619460 -34.353082 1805.764303
1664.530027 -24.861215 1460.640555
541.189998 -7.708484 441.499002
365.089404 -4.895357 275.914094
678.620720 -8.128735 487.538841
698.912585 -7.474106 460.752638
1371.749383 -12.464159 823.578110
1391.050149 -11.841504 798.100205
1074.923643 -8.691849 589.901281
1358.922303 -8.024112 613.055591
1700.046663 -6.726929 617.665147
1721.011943 -6.050575 589.990006
735.877468 16.603548 1261.428491
1398.740741 35.605711 1181.271279
353.218590 8.682879 290.400237
1487.595407 38.472221 1063.979003
1554.236407 40.622103 976.009796
1576.450073 41.338730 946.686727
1598.663740 42.055357 917.363658
389.820711 10.204007 128.533302
714.985895 56.143530 1228.835556
1447.682837 105.975132 1962.243869
521.991915 34.200822 463.235017
538.954750 34.748054 440.843288
1366.662732 84.152202 822.085932
1385.963498 84.774858 796.608027
1405.264264 85.397513 771.130121
1424.565030 86.020168 745.652216
1931.142596 114.586708 870.560798
1643.122330 183.623052 1698.204945
1122.679090 117.005565 913.659031
1383.420173 133.083039 795.861938
2002.223076 187.542093 997.782509
2029.014161 188.406391 962.417037
1256.677238 198.102719 1354.633624
1278.890905 198.819346 1325.310555
1301.104571 199.535973 1295.987486
1102.718853 160.578647 936.257953
1120.355103 161.147604 912.977285
1470.450601 193.160182 846.403746
1490.999753 193.823112 819.277913
652.969127 162.265056 1131.249666
1204.725642 268.132315 1644.174907
1228.603824 268.902640 1612.654600
1209.322737 252.268388 1412.421072
1231.536404 252.985015 1383.098003
1364.818403 257.284779 1207.159589
1387.032070 258.001406 1177.836520
1409.245736 258.718034 1148.513451
1586.955069 264.451052 913.928899
1609.168735 265.167680 884.605830
632.516166 193.472745 1098.785304
722.539039 216.562391 1205.282515
596.393211 172.121962 921.137903
621.678623 172.937686 887.759988
1440.493752 350.744000 1496.872092
612.172939 222.597383 1066.353227
1022.419515 363.715158 1705.941135
1009.819041 338.949990 1497.596649
1071.893221 334.862888 1359.411533
1092.442373 335.525817 1332.285700
1112.991525 336.188746 1305.159867
1270.109401 365.616117 1322.734486
1292.323068 366.332744 1293.411417
1277.384743 341.492178 1088.153203
1297.933895 342.155107 1061.027370
1236.836895 297.556419 747.967376
1135.699525 269.935015 656.495896
1151.671261 270.450274 635.412465
591.939317 249.638926 1033.953208
944.160536 389.395249 1579.811642
965.125817 390.071602 1552.136500
828.879152 328.612449 1282.740982
1067.259234 414.765395 1585.783417
1028.021658 392.100663 1469.111075
1048.986938 392.777017 1441.435934
1089.734544 386.958602 1331.491354
1110.283696 387.621531 1304.365521
1130.832848 388.284460 1277.239688
1378.250566 424.798177 1175.260451
1295.226066 393.587892 1060.233024
1234.512909 341.698458 747.285631
571.815429 274.597426 1001.585475
826.555165 372.754488 1282.059237
1025.258994 444.574982 1468.300643
1046.224274 445.251336 1440.625502
1153.186733 473.230828 1467.632451
1175.400399 473.947455 1438.309382
1107.575866 439.054317 1303.571174
1128.125019 439.717246 1276.445341
1148.674171 440.380175 1249.319508
1189.772475 441.706033 1195.067842
1210.321628 442.368962 1167.942009
1230.870780 443.031891 1140.816176
1553.032731 486.130120 939.817208
1575.246397 486.846747 910.494139
1597.460064 487.563374 881.171070
551.801211 297.472859 969.249913
1001.531050 496.372948 1495.165352
1022.496330 497.049301 1467.490211
1063.769733 489.161244 1357.028494
1084.318885 489.824173 1329.902661
1187.064646 493.138818 1194.273496
1207.613798 493.801747 1167.147663
1228.162951 494.464676 1140.021830
1248.712103 495.127605 1112.895997
1372.396231 535.996025 1173.543071
822.285964 287.759712 500.239481
834.096412 288.140724 484.649143
531.896629 318.265205 936.946466
1114.212055 624.411732 1733.197628
998.768386 548.847267 1494.354920
1019.733666 549.523620 1466.679778
824.640159 -180.755529 492.735701
528.469856 -124.362990 1092.159105
321.385440 -60.235810 464.344684
528.314501 -88.452655 1091.577141
98.303231 -13.452417 138.568120
517.922558 -72.696796 1749.371086
90.305657 -8.208736 144.934549
1506.980719 -94.878103 1382.826183
1538.593963 -95.155704 1357.257633
1990.616092 -108.122465 1280.597228
2025.739013 -108.430884 1252.190079
1467.048917 -76.532463 837.258990
935.717098 -34.300147 2637.839962
1152.902179 -31.872518 1884.587632
1187.147681 -32.173233 1856.890133
1632.339205 -36.082524 1496.822640
1700.830209 -36.683953 1441.427641
1735.075711 -36.984668 1413.730141
1769.321213 -37.285383 1386.032642
2177.390742 -43.036082 1344.786484
2215.145923 -43.367615 1314.250383
1065.184855 -20.807204 583.746026
482.879311 27.833017 1631.361521
1289.595859 33.571642 1772.717550
1323.841361 33.270928 1745.020050
511.502748 11.262099 597.891925
1383.896170 110.880920 1983.663064
1421.651352 110.549386 1953.126962
511.399105 35.219280 597.503674
865.499765 175.165405 2185.194972
900.622686 174.856985 2156.787823
1442.689568 151.774065 1429.975024
1474.302813 151.496464 1404.406474
900.326971 243.211597 2155.680064
364.868458 59.265450 426.813562
355.994029 76.469533 433.653647
255.073965 53.368324 299.183771
506.437866 266.934507 1607.591784
748.495061 196.885677 907.835876
933.285115 527.854273 2628.729660
777.746767 403.700641 1962.926317
809.360012 403.423041 1937.357767
748.339707 232.796012 907.253912
254.970102 77.376373 298.794696
1042.192274 554.729104 2251.343309
1079.947456 554.397570 2220.807208
641.162719 230.290962 777.439847
254.918171 89.380397 298.600158
1253.025442 848.741044 3157.822193
1097.649710 687.020411 2492.627901
641.029526 261.078516 776.940902
656.849217 260.939601 764.146057
890.535793 703.010033 2371.106160
928.290975 702.678499 2340.570058
876.054892 637.003392 2095.366780
910.300394 636.702678 2067.669280
871.788006 587.440565 1883.229472
656.716024 291.727155 763.647113
3.604674 -36.527926 121.360120
18.060605 -36.818655 118.835403
-414.693975 -491.430961 1976.063420
-332.999313 -480.903282 2474.414033
-73.466972 -162.140968 964.190144
-194.909551 -50.838434 2653.124861
220.154629 -49.920641 2132.585782
568.258847 -51.627038 1815.761882
983.062442 -65.263799 1999.344531
1025.446209 -66.116197 1991.942240
-273.540881 27.515954 2476.638179
179.314307 16.025073 2141.329770
221.698075 15.172675 2133.927479
270.524646 11.807381 1869.182226
610.209560 9.146649 2258.237519
1147.876279 -1.070762 2228.388788
1195.256851 -2.023652 2220.113809
70.597176 111.003944 2867.049254
150.575757 89.273238 2340.265929
142.131307 211.081320 1640.313784
201.196653 242.987915 1886.975506
931.734741 410.315446 3172.763764
81.409463 190.719805 1202.107142
44.939234 79.329491 501.266111
128.700955 189.768706 1193.847720
67.342234 142.547718 755.087391
82.243570 142.248031 752.484885
-241.922139 274.317519 1132.404737
605.170610 -348.127645 1440.952551
634.573954 -348.063180 1439.808198
-660.710381 -372.820224 1810.057211
-640.976432 -382.269572 1855.013332
-477.404314 -343.940501 1665.750647
377.028730 -408.515525 1952.565883
416.520312 -408.428943 1951.028904
774.210899 -483.585644 2302.901084
821.039380 -483.482977 2301.078559
-643.830492 -310.425780 1763.401265
-543.844720 -358.828504 2033.811471
251.924458 -97.766812 539.898813
-134.785922 -88.577431 600.571926
240.523347 -269.051485 1820.127532
454.567570 -315.585099 2131.765059
497.727601 -315.490474 2130.085307
-604.768381 -159.619237 1852.446990
-604.901430 -103.976791 1852.162880
-277.913909 -75.233813 1336.868209
-237.498981 -103.171293 1837.863889
-200.758736 -103.090743 1836.433990
45.262206 -18.473108 319.153311
-413.660980 -51.391378 1981.473140
-374.169398 -51.304796 1979.936161
-295.186234 -51.131633 1976.862204
-255.694652 -51.045051 1975.325225
-97.728324 -50.698723 1969.177310
-58.236743 -50.612142 1967.640331
-18.745161 -50.525560 1966.103352
20.746421 -50.438978 1964.566373
-308.287034 4.507638 1154.936193
-272.524021 11.258652 2478.079106
-222.944199 11.367352 2476.149502
-18.888173 9.283738 1965.797966
-544.869052 69.559229 2031.624121
-504.460358 69.647821 2030.051449
-239.419593 39.466994 1152.074961
-28.355876 5.929729 184.866349
