ply
format ascii 1.0
element vertex 1230
property float x
property float y
property float z
end_header
96483.905507 -13654.268896 65845.891014
10117.465439 -1410.971200 6386.175817
8177.319329 -1123.916270 4756.106320
13818.037329 -1871.836199 7373.232806
8423.676579 -1133.355523 4301.625048
30012.767669 -3981.365705 13961.936516
9808.433624 -1292.771731 4351.648385
29084.073628 -3733.065035 10465.938529
25772.545257 -3287.106357 8761.171817
23599.414783 -2991.124393 7560.909107
25024.678762 -3152.092803 7536.209128
31369.922566 -3927.006851 8853.622356
36587.540583 -4552.356586 9646.650913
30675.935856 -3794.057718 7529.261928
29684.310904 -3649.704486 6753.986244
3140.054966 -381.257985 3625.392415
73539.245720 -8698.509539 76806.880409
72530.513476 -8443.710462 70858.022476
102959.209503 -11626.989774 87614.280053
36730.694134 -4117.987208 30168.050715
84524.608304 -9407.616262 66954.061877
95427.738745 -10329.721886 65062.735082
11166.730137 -1193.151156 7040.559673
22130.309880 -2333.722222 12847.492747
10529.497627 -1096.685592 5612.869477
28878.083593 -2952.514253 13415.462954
9806.057460 -996.916955 4344.215663
34983.425313 -3474.641385 12565.330894
61526.705948 -6076.751212 20869.870975
23594.006597 -2317.754284 7543.992114
31086.774221 -3037.140903 9340.857771
30138.528735 -2928.758782 8486.926103
26698.515794 -2580.804222 7023.300582
36898.566153 -3548.020586 9032.268049
12084.562589 -1156.268376 2744.076685
2270.607404 -185.985400 2622.501835
76219.083180 -6114.088915 79556.900323
78965.145346 -6257.045792 77092.830518
103895.257027 -8042.548251 88343.206649
52339.671041 -4029.177307 42951.188604
88448.948459 -6771.383750 70004.614718
94372.116759 -7073.813323 64281.299130
15370.366142 -1140.796153 9678.668851
19978.238811 -1468.311361 11585.597600
16926.987224 -1238.179354 9408.895012
20379.548034 -1483.687645 10845.260035
8419.475528 -610.285124 4288.484016
33060.119904 -2384.696318 16072.854682
29998.092360 -2154.151427 13916.031642
16630.772407 -1189.089000 7353.464120
48249.689314 -3419.578903 19273.734125
1401.711033 -59.351963 1621.335569
46479.195488 -1958.098359 48488.091621
6939.231505 -292.114409 7008.801133
66032.792701 -2775.935923 64425.882675
5237.809915 -220.060367 4946.554477
102900.432051 -4308.642940 87430.422145
44517.422964 -1862.341780 36504.066943
81517.282337 -3406.978404 64465.724129
8686.564649 -362.495785 6385.829879
92287.235992 -3843.654876 62800.876340
14314.970925 -595.308768 9005.108519
36048.503707 -1493.239455 18320.831104
8663.732253 -358.189177 3827.432228
41283.468317 -1704.114044 16464.895222
18269.295514 -753.683468 6911.185731
37328.453316 -1538.849334 13359.053712
32903.380983 -1355.574223 11120.368470
33201.019208 -1366.978322 10571.283759
37137.671174 -1528.107669 11110.482515
35020.076197 -1440.107820 9815.995943
131806.547899 -5395.598847 18501.139328
533.365939 -1.357685 621.893717
6690.773730 -21.139956 7456.711889
546.740693 -1.870142 597.219894
5054.559172 -20.202385 5276.912336
7848.133122 -34.607296 7920.756903
7019.250063 -33.725627 6850.736859
4303.706610 -22.310478 4062.941184
31710.071555 -176.953688 28878.830769
11082.031195 -65.883371 9752.287968
19891.192978 -125.513897 16893.434238
18162.082212 -121.017015 14885.007069
6525.530721 -45.685857 5162.404863
10585.713043 -77.744027 8068.750270
14732.103022 -113.105269 10816.059296
90203.457778 -750.774732 61323.902375
16245.068999 -140.197782 10624.079235
19566.664493 -174.834010 12293.825592
37876.381002 -382.340464 20102.335888
14348.117936 -160.147237 6326.140631
21573.210609 -251.715432 8592.137768
24113.117292 -287.278204 9104.803963
40860.940679 -496.694772 14596.403018
28131.061459 -348.595243 9489.922280
34395.358900 -434.227563 10929.247612
32278.315200 -414.866865 9636.485453
33788.682367 -441.859804 9449.299691
34086.320593 -453.263903 8900.214979
50605.493737 -715.674091 9615.336855
34286.351080 -491.805368 5932.049304
44964.710235 -653.931944 7025.745321
42718.355083 -629.616639 5971.537673
7567.071837 271.925384 8427.444096
8549.141467 299.483340 9213.493966
8652.812465 295.511154 9022.241113
8756.483462 291.538969 8830.988260
11624.661842 377.202598 11333.089003
8031.547039 254.128877 7570.577570
7181.387704 221.516738 6541.178829
18709.470774 562.049755 16447.435736
21814.721732 638.629980 18512.187720
2550.833337 73.006551 2094.763275
6523.705834 181.529767 5156.696554
10582.785602 286.749900 8059.593135
8774.707362 225.654464 6199.591129
18130.960691 453.843043 12319.119316
44321.792356 1079.989875 28946.569896
14307.462214 339.596541 8981.621010
30994.913957 678.005538 17163.177619
8659.531202 164.881222 3814.291196
41597.537836 662.880505 13190.069709
43183.061099 667.316952 12862.864844
30111.383223 451.113385 8402.013999
46418.763367 673.712542 12089.177826
45486.136599 579.073917 8614.137905
39430.553437 485.163960 6796.616503
52747.133234 626.797887 8207.897399
42709.363597 489.908063 5943.411994
11077.187649 831.179028 12325.773439
4101.994559 302.473500 4422.393816
5051.460675 365.589684 5267.220131
6932.929929 492.491190 6989.089585
12542.409947 874.533858 12219.129781
8961.173655 613.768949 8440.187626
9064.844652 609.796763 8248.934773
11075.625037 731.743635 9732.249285
7343.525345 476.759103 6231.620798
12301.177469 784.281488 10067.749975
14408.941468 902.512403 11372.148557
8586.541117 528.627842 6534.905017
8679.436158 525.068541 6363.531712
7754.120761 461.027015 5474.152011
10923.199026 638.088618 7417.038799
21435.271128 1230.268204 13988.380473
10101.554627 570.074907 6336.406245
53727.218208 2878.355331 29711.813959
15037.581988 778.930586 7616.022037
14341.160501 706.118920 6304.377535
65905.652719 2610.725457 12437.781614
41997.336021 1636.369806 7212.251342
39752.079327 1523.406651 6161.491885
42700.372112 1609.432765 5915.286316
8440.166866 963.804228 9388.156961
3212.097637 361.293550 3462.711157
11345.706670 1253.890431 11813.108899
7933.899671 849.397729 7727.085431
8958.521853 943.943300 8431.892697
10947.199047 1135.355091 9953.241891
18698.654402 1908.789973 16413.601751
8305.479833 835.160523 7041.592210
8398.374873 831.601221 6870.218905
7505.662986 732.001467 5922.062767
8584.164954 824.482618 6527.472295
15727.171881 1487.426105 11515.265151
17931.368218 1670.580215 12639.023391
7834.139319 719.415797 5316.087738
15192.665389 1374.101603 9906.289639
15350.216173 1368.064997 9615.639048
28007.452508 2354.946447 14810.898504
50857.995170 4155.506799 24556.813257
10928.270804 868.471773 4798.088493
60785.193028 4042.751768 11433.133838
49712.346893 3262.772700 8505.058642
42339.862581 2742.425988 6535.643151
51853.580110 3314.534981 7149.935443
7559.943346 1159.489711 8405.145929
8541.186061 1290.006394 9188.609179
7745.733427 1152.371107 8062.399318
16937.624353 2481.313970 17041.800618
8852.199053 1278.089837 8614.850621
10818.773056 1538.966548 10174.234498
5290.630837 742.099156 4810.589309
7257.205212 1002.975919 6369.973523
6375.544921 868.643706 5402.800044
7421.443378 996.683084 6066.986009
8488.893750 1123.896695 6691.412878
17546.754000 2289.861689 13324.409281
18743.515857 2412.120691 13710.281577
15891.192989 2017.068421 11191.266845
12974.214379 1624.493456 8791.529399
7914.157877 977.804579 5158.023465
23746.084084 2892.899218 14856.180843
54236.693161 6431.814816 31229.566654
25814.208772 2981.771689 13634.557973
58080.882615 6620.750123 29325.114739
41928.278194 4717.942631 20218.550467
16606.592443 1821.544380 7277.828355
54390.656313 5081.009315 10196.210876
47127.585402 4350.616308 8033.173145
47522.207275 4335.496251 7305.172441
51842.659156 4674.296713 7115.774320
8434.863261 1624.152930 9371.567104
8538.534259 1620.180745 9180.314251
10439.901242 1952.173912 10857.251002
13293.996005 2450.085334 13368.884816
7008.747437 1273.950372 6817.884279
21989.681819 3938.708602 20657.690440
30721.784113 5425.936562 27879.314734
7255.104686 1264.511119 6363.403007
6373.720034 1095.859330 5397.091735
9367.902238 1588.403260 7650.291428
8486.517586 1419.751470 6683.980155
13558.570662 2237.525767 10288.501212
15718.560617 2559.609717 11488.328817
12834.736793 2062.837372 9031.539347
3717.299949 590.373862 2520.785515
9989.928223 1564.570146 6502.774311
54181.481030 8373.095048 33854.331139
38830.432012 5924.940500 23289.613431
25807.698032 3792.420156 13614.192154
26825.835689 3753.409903 11735.925944
55654.914936 6697.261509 10397.773765
34249.662807 4076.230328 5817.287117
47512.113236 5592.299256 7273.597937
51831.738202 6034.058446 7081.613197
8432.211459 1954.327282 9363.272175
4984.696517 1139.494472 5359.570373
11335.270518 2553.289666 11780.464255
5105.830846 1134.853173 5136.101065
7926.771180 1736.962055 7704.787264
5226.965175 1130.211875 4912.631757
9054.237444 1930.494168 8215.755058
9157.908441 1926.521982 8024.502205
13114.491829 2721.849587 11089.070589
13261.266655 2716.225865 10818.299545
18331.941539 3705.598041 14418.509569
21519.265627 4293.669099 16311.291974
52948.539418 10428.118371 38649.036338
14865.473841 2891.491505 10449.772940
8855.721584 1701.369039 5991.054213
6871.297029 1303.940219 4470.083958
45771.766380 8572.516688 28570.472121
32675.613207 5760.060481 16457.386037
55642.891428 8194.301544 10360.163816
66404.999491 9675.798707 11233.557295
39718.318495 5726.948420 6055.886833
51820.817247 7393.820178 7047.452074
4922.580103 1334.711155 5466.458925
15633.396728 4176.807142 16781.723888
10433.495085 2749.800917 10837.212319
13285.936017 3453.629794 13343.672894
13443.486800 3447.593189 13053.022303
12670.412995 3206.173407 11889.639965
8110.185097 2025.698227 7354.607931
12011.786145 2960.368556 10515.125228
9258.927637 2252.724148 7824.954424
14231.240715 3417.410159 11599.769345
8481.765258 2011.461021 6669.114711
20518.025834 4802.772542 15539.196108
57964.316603 13396.499524 42271.541091
15878.276092 3625.343838 11150.862344
9984.624619 2224.918848 6486.184454
39464.782176 8684.508018 24608.521848
73487.240940 12801.733980 13634.760926
36807.449844 6346.960610 6204.795584
47491.925158 8105.905267 7210.448929
17807.531904 3009.343141 2412.653435
4921.030855 1527.607190 5461.612822
7643.333732 2339.349511 8204.041734
11328.313084 3419.555823 11758.701160
10555.514918 3143.816466 10596.181029
5163.299514 1518.324593 5014.674206
15457.705487 4482.734315 14493.504830
6225.559121 1782.973268 5643.195225
12960.208291 3662.378617 11336.354124
14069.659938 3925.218995 11877.813976
20067.928923 5527.490103 16341.272726
20290.135466 5518.976192 15931.344817
22502.351393 6044.913175 17026.601414
18722.985667 4968.322823 13646.062432
26039.538126 6825.432853 18265.726877
11020.081338 2820.667110 7150.963587
36307.759065 9180.147519 22616.501594
53645.154179 13096.100272 29455.114837
27972.142425 6751.384535 14700.447342
31556.519804 7530.095608 15852.511148
29924.715815 6981.919966 13686.507268
53068.485258 10675.400692 9813.495894
7222.583114 1439.422519 1215.695968
17657.002722 3482.419517 2671.680724
55721.497685 10879.099071 7507.385934
7548.062528 2638.763588 8367.982317
8527.927051 2940.878149 9147.134536
15813.561564 5378.993798 16401.049493
8735.269045 2932.933778 8764.628830
2403.858204 797.914994 2337.167460
8012.537729 2620.967080 7511.115791
19395.625470 6260.721574 17553.277253
10101.578260 3220.241595 8830.865656
25614.444132 8060.395325 21601.632294
20062.245099 6235.179841 16323.493526
24220.264028 7434.497558 19000.003994
18517.198508 5615.061498 14000.176428
26761.893206 8016.430466 19484.811637
13092.819661 3784.948010 8486.230164
36298.216303 10368.311372 22586.651503
25421.217777 6709.165916 11610.853745
71570.435082 16489.330792 14426.129907
178413.778251 39907.922462 26852.673658
96233.935935 21318.532469 12902.556231
8421.604251 3275.024686 9330.092460
8525.275248 3271.052501 9138.839607
11321.355649 4285.821980 11736.938064
7824.371485 2923.940458 7846.429679
5160.201017 1904.116662 5004.982000
13588.947601 4946.873273 12724.553829
8103.056606 2913.262554 7332.309764
9147.301233 3247.219387 7991.322490
19834.354731 6951.383491 16715.642234
19083.658238 6606.178682 15515.086142
23229.800191 7943.188117 18208.028580
23484.334606 7933.435554 17738.462028
20723.180903 6917.327847 15075.930598
2657.289511 878.114328 1866.043879
42140.947043 13576.047888 27273.140917
22043.686200 6492.764315 10054.409521
83023.793717 22480.697125 24244.592509
83763.246252 22452.364777 22880.446214
37704.761080 10006.346695 9602.621912
46730.834101 12278.282830 11049.367181
98095.723499 25268.916833 19708.772560
112953.074943 28813.295300 20739.706729
1236.266150 -417.093017 1379.128824
1612.635143 -537.082646 1735.482288
731.369268 -241.611826 764.468454
2621.125146 -832.238684 2442.263122
2263.491636 -702.901139 1959.456797
2168.100696 -665.930756 1807.409802
3107.840573 -933.352067 2394.354139
2830.143752 -841.023138 2095.691856
2671.572883 -785.605872 1899.781148
2255.021281 -656.414090 1539.342238
2182.178028 -628.689549 1428.007355
2381.715803 -665.402274 1363.751032
3374.005466 -932.693577 1841.554334
2429.185826 -665.284833 1265.160194
2657.257244 -720.530155 1316.724705
2511.040620 -674.383890 1182.696376
4206.166312 -1107.365149 1776.518080
2578.238218 -637.011264 692.968063
2487.967850 -609.329838 617.827681
3725.788653 -903.918514 848.309708
1956.532273 -471.120653 408.450568
1207.424394 -357.200082 1348.065098
1833.063867 -535.061360 1972.873507
2276.424812 -656.288834 2364.010446
4654.857698 -1294.646329 4333.865283
1941.874512 -534.792163 1746.883887
3480.920353 -946.887414 3011.081201
1985.398770 -534.684485 1656.488039
1905.974610 -502.261147 1471.589509
4113.104969 -1059.492861 2922.585946
1808.697399 -461.726993 1236.306041
1571.081325 -397.075188 1030.102304
1124.016186 -275.856852 646.658349
2102.917106 -509.928844 1150.021709
1146.496357 -275.801236 599.969118
1600.064597 -380.693567 794.979163
1512.517092 -356.445285 714.415852
2731.970913 -630.696969 1155.492358
2538.792368 -549.625310 682.068420
3502.266870 -751.115608 867.615590
4254.356255 -904.199176 967.407895
1878.354889 -396.314996 391.923602
1546.869456 -323.740465 293.214032
1178.644288 -299.600267 1317.028324
2975.816632 -736.678351 3089.804536
2272.212166 -556.202705 2279.082240
2901.978920 -701.819395 2806.226885
4184.924666 -1000.003242 3899.278265
2792.173999 -660.041123 2509.963786
4046.333210 -895.221272 2876.325241
1680.163825 -368.442726 1149.281644
2006.543168 -409.685195 995.739749
2536.690602 -471.448530 681.149574
3687.451449 -678.851201 912.714686
1149.925832 -244.293574 1286.018502
2972.543515 -614.932275 3088.373601
1560.396469 -319.479975 1568.523358
3071.075357 -620.550174 2971.040611
3657.915077 -730.470329 3411.095709
1203.789210 -238.298632 1086.840469
3302.102719 -637.563650 2753.144299
2484.974512 -469.596379 1918.289106
3162.758579 -591.014946 2344.079378
3926.519140 -718.082473 2678.612954
1280.132758 -232.248074 840.973205
633.559368 -110.752311 350.361533
2052.527954 -353.432554 1070.264651
636.127789 -104.884272 257.718368
962.575809 -156.831805 365.495236
1121.269027 -191.280001 1255.035633
2969.270398 -493.186200 3086.942667
2895.740937 -469.792856 2803.499776
3298.706302 -511.231340 2751.659460
3243.988889 -497.221581 2603.608848
2880.852302 -436.824369 2223.803301
3764.535922 -552.514360 2569.257046
1310.853978 -190.810970 861.285267
1252.640346 -176.809846 720.495693
1498.121667 -209.207863 821.272826
1748.206380 -241.594492 912.489137
2545.818768 -348.067311 1262.241975
1885.308593 -255.400446 889.434442
1834.000052 -241.382239 734.303636
1637.697766 -213.577601 618.617505
1976.034472 -255.175991 701.005204
1559.366076 -199.626249 519.611274
1719.818598 -218.089483 535.291447
1735.333263 -218.051100 503.068926
1825.289740 -227.258644 490.700257
1841.462033 -227.218634 457.111904
1706.120192 -208.693276 389.279174
4204.454678 -508.990526 870.504064
1092.673871 -140.559550 1224.079715
2938.013898 -367.940932 3056.476546
3064.467474 -374.764910 2968.151791
3385.178513 -395.381942 2824.987497
3058.975005 -353.368030 2456.636344
3634.461097 -401.902064 2481.558847
2171.669200 -237.805654 1423.413128
1141.147929 -122.597568 687.634592
1330.507302 -139.971152 730.121730
772.977083 -80.687484 406.445710
1865.462377 -192.173848 926.376633
1780.915284 -181.677782 840.511708
2074.550691 -209.498633 927.888870
2431.083850 -240.732264 971.786471
1671.820163 -164.105626 631.323161
1759.084479 -171.026557 624.390867
2209.700443 -212.732674 734.348884
2193.286167 -209.204883 681.286296
1844.462624 -174.383744 534.222174
1637.823246 -153.484500 440.470206
2177.616116 -202.106827 539.523941
1629.031985 -149.937838 371.575040
30957.196128 -2675.183789 2907.666270
1064.140365 -92.132219 1193.150750
2850.914291 -240.283567 2967.994330
3061.163533 -251.872278 2966.707381
3261.988214 -256.218988 2723.765743
3388.651931 -263.170955 2721.926138
3630.910555 -269.836941 2480.006629
2297.160373 -169.000309 1505.800791
1447.594373 -103.292430 832.133842
1561.763067 -110.275302 856.244960
1677.904643 -117.253292 876.258583
2033.117034 -140.592254 1009.278691
2487.040468 -168.530548 1111.437440
1619.664685 -107.710279 648.912364
3000.909456 -176.946339 392.484409
1035.668509 -45.998009 1162.248736
1158.595169 -50.794441 1254.936685
2177.645027 -94.178292 2270.421915
1186.336361 -50.725810 1197.320801
2972.121870 -125.366350 2882.336132
607.007766 -25.381166 573.557652
1754.212425 -72.273377 1583.873660
1093.990182 -44.578583 954.121223
3049.361034 -122.624985 2547.919938
2931.843660 -116.540028 2356.998315
1619.504230 -63.680674 1254.658166
1698.753715 -66.034887 1264.061947
3564.282617 -135.377587 2435.462137
1785.056755 -67.096516 1171.817623
1415.379767 -48.884020 634.620079
1653.396618 -55.945996 662.273984
1562.458198 -52.345563 590.148232
2185.810404 -72.480741 774.483200
2242.070569 -73.616696 744.635141
2246.164580 -72.331425 649.133172
2669.670788 -82.759920 552.539581
2000.761700 -61.462308 375.822947
1746.512935 -53.165351 294.882415
2817.105568 -84.945444 420.328825
1815.657138 -54.269427 238.275123
2268.191343 -67.176379 255.390403
4932.786245 -144.743308 463.195613
1007.258304 -2.156920 1131.373674
1267.542874 -2.669489 1373.078539
1450.073637 -2.988917 1515.506924
1297.914576 -2.594350 1309.999329
1684.230229 -3.309125 1637.634558
1386.040799 -2.633329 1300.811953
2891.394048 -5.462664 2607.319605
1210.983543 -2.166910 1055.940478
1314.116430 -2.297264 1102.506962
1358.837169 -2.315127 1096.547443
1312.651548 -2.172387 1018.628077
1388.551244 -2.241614 1034.834064
1372.229325 -2.153493 981.811868
3308.731560 -5.201182 2262.076143
1369.449188 -2.031870 900.664646
276.696111 -0.237787 127.965572
2003.189405 -2.263020 801.343304
1951.085136 -2.134923 735.716423
2040.795012 -2.169984 723.239946
1842.930830 -1.888491 612.657650
2501.660252 -2.443322 722.200257
1867.742259 -1.570105 387.283995
2268.043162 -1.864777 425.109228
2132.536893 -1.686013 358.857946
2502.316593 -1.927693 373.151860
2129.427942 -1.565203 278.393639
81.382218 0.050016 12.086546
4568.476343 -3.241095 427.994534
3354.063602 -2.262002 255.656891
978.909748 39.391049 1100.525565
1321.181618 52.455451 1431.784376
1364.885091 53.581709 1427.860128
1127.358117 43.830850 1139.587317
1169.088707 44.952227 1139.760564
1298.016229 49.343734 1219.365304
1487.924760 55.922379 1346.005769
1357.234367 50.508375 1183.218535
1193.422959 43.994294 1002.376765
1176.474237 42.934228 950.733877
1372.301417 49.527515 1065.081857
1726.171052 61.602478 1285.409654
1215.126701 43.029854 870.456293
2140.842381 74.845996 1466.301502
2004.233238 69.417346 1315.806683
1481.713327 47.761928 664.155838
1790.119725 52.597465 370.999597
1805.634390 52.635848 338.777076
1975.992454 57.129854 332.334422
1992.822375 57.171491 297.380237
1734.072953 49.404400 226.872107
2224.968800 62.836500 249.452979
950.622842 78.645896 1069.704408
1209.694934 98.769787 1312.532536
1363.369001 109.973836 1427.197327
1435.857259 114.482716 1450.178569
1367.226790 107.818608 1332.418740
1181.360999 92.205373 1111.080545
1340.624901 103.423251 1214.135767
1296.864277 98.985443 1131.489894
1341.194552 101.259888 1126.186339
1325.920724 99.057329 1071.142347
1370.908627 101.333401 1064.472960
1416.554158 103.611099 1056.437741
1400.622702 101.406913 1002.759581
1384.033619 99.201100 950.447253
1398.561843 99.237042 920.273479
2168.491088 142.272511 969.761823
2320.978844 138.320220 479.526262
2149.340972 127.071736 402.170909
2206.494863 129.377899 370.233613
2498.359662 145.253382 371.421977
2794.827603 161.140239 363.049482
2302.569868 131.780367 257.461333
922.397587 115.607623 1038.910202
1235.802499 152.808480 1341.574268
1250.659537 152.845237 1310.717578
1349.898046 163.024978 1364.674852
1508.021381 179.973218 1469.711442
1295.230649 152.955505 1218.147510
1455.655681 169.909439 1318.403689
1354.387137 156.413267 1181.973789
1310.030536 149.680711 1100.720700
1384.758840 156.488406 1118.894578
1339.086983 149.752597 1040.373152
1353.615207 149.788539 1010.199379
1337.056949 146.436166 957.900526
1414.086950 153.249555 971.293994
1428.943987 153.286311 940.437305
2805.368246 285.836526 1462.595964
2269.667419 224.905849 1014.798169
3382.856872 303.822262 696.649447
2300.890651 205.114642 429.817498
2088.784573 184.721430 350.208960
2730.249278 239.290960 404.967629
2242.337779 195.035546 291.359645
2023.326735 174.625262 226.092362
1383.241091 116.747746 81.780973
894.233981 150.276228 1008.142949
1234.409709 204.614366 1340.965371
1332.569302 218.231348 1396.930964
1460.798111 236.380767 1477.056908
1364.256260 218.309742 1331.120090
1638.885379 259.111581 1540.242775
1483.191540 231.978123 1343.936509
1441.198285 222.958141 1257.929961
1397.889775 213.934905 1174.655077
1383.335225 209.440852 1118.272205
1520.113193 227.611421 1180.642338
1505.887456 223.118182 1123.576550
1584.171063 232.227946 1134.211403
1287.156278 186.912679 884.970350
1427.551197 205.092197 939.828408
1958.533038 259.902387 876.364226
2658.853710 319.589580 547.810594
2375.614607 283.224485 443.181370
2511.916480 296.935817 419.928705
2416.508354 283.325656 358.248849
2436.955228 283.376241 315.782588
3156.720556 360.943693 293.288937
1974.883949 224.278475 149.514321
2356.377692 265.344711 136.689370
866.132026 182.651713 977.402648
1233.016919 256.420252 1340.356474
1497.504198 307.516730 1569.845349
1234.665487 250.819648 1250.398726
1419.559638 284.905167 1385.593672
1292.445070 256.567276 1216.929716
1307.302107 256.604033 1186.073027
1439.682195 279.350268 1257.267160
1366.725759 262.355728 1149.189438
1411.950000 268.072295 1141.796707
1943.707233 364.667473 1508.461553
2578.732092 478.332162 1920.250311
1582.593323 290.913194 1133.521650
1693.484180 308.001583 1162.813098
1616.253164 290.996468 1063.613281
1888.144408 314.087853 845.055680
2580.830450 388.662439 531.351007
2258.921460 337.423881 421.121422
2509.907189 371.672911 419.050287
2258.926085 331.819229 334.578272
1610.889562 234.936377 209.414730
3207.390990 463.073395 354.982313
2835.057275 406.105422 262.946660
1772.209765 252.149528 133.969102
2192.342315 309.235754 126.731006
838.091721 212.734077 946.689298
1204.247075 301.407088 1310.150852
1357.304641 335.542345 1424.546123
1345.442252 328.761679 1362.726877
1418.012723 342.443855 1384.917395
1319.744590 315.195465 1243.185880
1305.909317 308.409918 1185.464130
1467.516043 342.566326 1282.103589
1484.017149 342.607150 1247.832321
1710.571213 390.426874 1382.494839
1517.019363 342.688797 1179.289783
2852.123763 636.298544 2124.023874
1550.021576 342.770444 1110.747246
1128.003195 247.207910 776.851690
1393.113983 301.874343 917.891795
1978.697219 411.344194 1084.991250
1955.007657 391.031608 874.823008
3488.307013 631.121160 716.274202
2639.376228 473.740557 490.928886
2315.114401 412.176488 386.283957
1868.277059 330.055168 276.847459
1766.477481 309.549360 228.906757
3125.802167 542.457159 345.230601
3271.454943 563.071481 302.092556
1529.643037 261.704202 115.595636
3203.912290 542.650403 183.003119
810.113065 240.523321 916.002901
1366.962488 399.860072 1487.054923
1245.088377 360.068779 1308.281990
1287.949272 368.072772 1305.642718
1274.802452 360.142291 1246.568611
1289.659490 360.179047 1215.711922
1101.584436 304.428063 1001.674545
1583.245578 431.986977 1383.370327
1601.061940 432.031054 1346.367395
1528.948081 408.158779 1237.004697
1545.778002 408.200416 1202.050513
1531.973554 400.268308 1144.342238
1207.879663 312.588992 867.288048
1897.685070 480.152656 1248.581929
2332.819313 583.902571 1467.772989
1953.244967 456.596219 874.052398
2538.758525 537.024330 521.783349
1949.696093 409.199706 363.150088
1983.355934 409.282980 293.241719
3834.583466 777.168856 421.840057
3547.809583 713.275736 326.412166
2773.735054 553.401571 206.516549
2472.493363 489.472657 141.136954
782.196060 266.019443 885.343456
1529.308089 512.071811 1663.797378
1243.695587 411.874664 1307.673093
1370.444754 448.366610 1389.632168
1386.617047 448.406620 1356.043815
1374.158680 439.331206 1295.617353
1679.596989 530.532809 1524.263937
1464.422213 457.643701 1280.751035
1688.243029 521.509578 1420.005300
1707.045832 521.556096 1380.953621
1483.650804 448.646681 1154.513699
1591.633725 476.047606 1189.147190
1887.183669 558.180124 1352.029377
2338.089685 676.875390 1537.457030
2522.076212 722.553503 1586.840470
1746.159308 467.385309 781.910547
3714.872903 906.396317 835.539045
3142.086735 760.265773 644.341440
754.340705 289.222444 854.710963
1254.730340 473.902525 1367.477183
1325.142978 494.459183 1393.684339
1229.217628 453.456948 1248.017042
1243.745852 453.492891 1217.843268
1315.473745 474.052803 1241.318762
1417.445542 504.878767 1288.204309
1667.677535 587.027671 1458.286370
1656.894158 576.809797 1394.458885
1705.283142 587.120707 1380.183011
1300.671290 443.442495 1013.390572
1773.461566 597.480641 1324.806865
1761.691552 587.260260 1263.027973
1483.705567 484.660236 978.140705
2105.091824 679.830923 1325.832276
1573.633218 474.691488 705.145472
3658.157358 1060.748631 1290.540911
3118.745773 896.354469 1031.267340
3292.063203 937.548171 1016.198464
3504.502628 989.029922 1006.100948
3830.690615 1071.366739 1018.429451
726.547000 310.132325 824.105422
1226.052970 515.449679 1337.311989
1213.327439 504.080331 1277.595395
1423.235338 583.964701 1444.660544
1553.026043 629.637264 1519.682652
1199.774091 481.371069 1133.451759
1589.316394 629.727046 1444.310957
1256.741920 492.849872 1101.281201
1477.829489 572.761900 1245.127212
1703.520452 652.685317 1379.412402
1601.470940 607.081385 1246.774410
1924.377415 721.258909 1437.591018
1759.928862 652.824871 1262.257364
2652.318237 972.492872 1820.944946
1419.194458 515.927510 936.175026
2294.194597 824.214661 1444.832378
1918.972431 675.894075 1104.231302
1971.276558 687.361377 1081.747101
1924.720997 664.570468 1006.146001
1910.351290 653.197015 949.843930
1895.324172 641.822009 894.907797
1811.321517 607.600554 810.934218
2725.488190 904.646700 1152.099687
2647.075593 870.439148 1056.516634
22531.732089 -11353.527868 48148.870850
1188518.577169 -519825.578585 2047396.484158
1156842.794463 -468667.089302 1760440.536092
173021.484738 -68410.377164 252798.414128
158576.928422 -61224.402522 222506.285504
1206255.547556 -416508.215220 1386002.610767
978793.299440 -330944.258548 1080892.152701
826952.125061 -273904.074205 877700.537783
168855.483091 -53733.416491 165541.724135
1715394.278458 -505961.313518 1433103.271011
1672415.298020 -484399.036203 1341844.370583
709002.647449 -201717.417192 546193.891025
1502647.549937 -412851.643415 1066241.523003
607755.253116 -158781.427770 380170.650156
1300726.478324 -334336.755532 779451.611707
682315.314286 -172589.937078 391483.023999
996469.019148 -220263.496875 373688.929943
8243.780629 -3621.959914 17652.482053
908151.354568 -345950.363384 1566599.665839
1082438.197709 -401634.275878 1790903.353428
679175.435785 -239533.067498 1034779.442013
1452546.433772 -499884.429968 2124649.026607
57371.478690 -15867.893679 56280.693817
1353632.304663 -301898.436327 811106.542490
399376.560469 -82334.698634 191271.784342
2163715.053501 -420424.675822 853446.524938
1279009.870142 -244984.969514 479280.386495
286613.394937 -92937.336563 495114.039866
1080132.332387 -341076.183098 1789458.509002
976470.101411 -292964.508400 1489509.845644
1773499.862409 -519108.682866 2597051.465113
284379.151789 -71013.546626 314509.274157
34406.433076 -8243.374151 35145.543458
146107.248142 -34304.523609 143406.650797
706754.880826 -153608.151892 590892.060023
1456384.989501 -254116.791577 697233.198894
1951465.480806 -330326.594048 849424.928122
1664248.894903 -273503.756379 655995.530490
927616.748986 -241424.199149 1538830.581795
1009552.101301 -249512.711186 1541820.885767
502899.802712 -101074.497468 534861.502074
338844.792942 -66701.077663 346308.185704
12844.744444 -2477.882034 12618.179465
86904.771294 -15213.215155 69797.589148
508332.590536 -87358.466735 391921.659879
592377.863165 -99970.611565 438328.526448
244698.707577 -40564.534665 173719.780981
300669.796199 -48973.361784 204721.459798
463877.988597 -74257.884763 302802.495860
498099.463312 -78385.368297 311575.754859
315316.849649 -48792.661893 188919.556555
375504.317910 -57149.471768 215372.414455
493526.702622 -73892.110211 270816.123180
500938.881129 -73800.666573 262819.530010
925632.236269 -189305.671605 1537587.095408
920008.460128 -178540.555008 1406758.256711
10625.047337 -1961.608293 14977.601584
56007.560388 -8624.725596 57280.922984
212044.062079 -31980.205045 208365.753169
442599.350165 -61639.351256 370320.402247
304970.697452 -41668.274736 245008.367860
165056.526580 -21725.390868 122162.007525
448425.941093 -57955.967547 318402.374274
196535.150517 -24948.540367 133833.460557
384194.521716 -47913.893876 250802.156138
390341.786971 -47838.055403 244170.208551
342098.622745 -41210.229567 204953.084038
98850.944725 -11707.667756 56691.547301
296629.620062 -34548.179053 162743.068672
44949.190187 -5149.652552 23579.177318
900213.303697 -137476.253207 1561625.720289
956884.859972 -142123.760883 1591628.172296
987978.443208 -139066.835705 1512511.957645
120435.015690 -16103.205722 169901.057531
224880.456078 -25507.985748 239505.080064
272697.600196 -30264.727110 279060.025915
57003.067490 -6192.445857 56049.849083
962873.687636 -91500.845799 1672681.397221
971411.764255 -89660.348336 1617959.792188
1038236.605327 -90571.097636 1591376.475548
47122.475572 -3894.343953 66552.402355
456767.813943 -28338.278106 398282.306980
37510.704970 -2277.764550 31411.788072
207383.025704 -12328.173219 166717.415666
432346.203098 -25169.245841 333608.944761
414742.781057 -23651.259881 307090.108291
421733.321813 -23565.017965 299548.396983
454582.738617 -24894.914928 309619.165251
461994.917123 -24803.471290 301622.572081
683024.416230 -35957.916834 427247.773444
877135.915043 -40503.811116 399872.422824
2670899.958417 -119013.469289 1104271.535392
1223736.895732 -53579.408543 481045.934332
833002.719179 -35842.802940 310954.651746
181631.459046 -7784.806978 375774.259040
276099.010724 -11401.300133 546554.344410
131110.500907 -5220.124627 248481.221549
24800.841199 -952.737346 45027.581896
154470.877808 -5728.917698 268728.300753
621830.082789 -22278.828525 1037101.334994
1036109.269134 -34701.649675 1590043.496639
1257162.842287 -40741.401016 1851503.362815
138198.863265 -4335.686734 195384.643262
1737203.158716 -38007.128321 1515411.596323
179744.256868 -3823.143502 150563.594977
303623.213579 -6279.801423 244164.040768
382601.998679 -7696.411570 295306.132729
214311.562760 -4193.677711 158720.155706
573550.609149 -10919.612778 407447.446998
299015.974511 -5539.651117 203685.182863
382632.802737 -6899.042789 249823.590330
468779.405138 -8227.223161 293232.670985
476191.583644 -8135.779523 285236.077815
1243159.666158 -18598.465874 594029.585223
639136.354569 -9313.495490 291241.225019
317799.938293 -4510.925637 137970.884195
809639.835221 -11194.949631 334541.050186
728198.254671 -9808.722856 286055.933264
706835.768702 -9275.281108 263653.392978
37149.780855 822.619907 76997.244444
156836.506315 3428.636159 310981.279986
85064.577978 1837.284967 161469.888005
40412.610561 862.873258 73477.156292
92122.148718 1924.353829 153855.861720
148891.350379 3048.255261 228775.996478
525812.239585 10663.107726 775293.843657
101532.243038 2040.445644 143703.826673
439945.764724 8050.787124 368657.678020
447779.581408 8147.432489 360206.202528
455613.398092 8244.077854 351754.727036
413558.811740 7442.890793 306348.238655
471281.031459 8437.368583 334851.776052
221240.099817 3940.817797 150722.895745
460739.536140 8166.137692 300835.956229
494782.481511 8727.304678 309497.349576
340301.977581 5974.401516 203827.314581
1008354.680122 17322.112168 481647.465079
727112.483050 12440.632803 331179.828101
287418.316420 4898.435711 124715.260128
717414.322321 12179.806370 296254.272780
665662.031760 11258.979123 261310.060007
768567.059210 12952.055625 286456.757778
195100.675754 17064.110660 405038.544818
38145.287957 3254.899646 75766.170543
8811.253829 734.305145 16757.966791
71585.428682 5826.151027 130344.523791
73516.314512 5849.972259 128261.396890
26019.991177 2025.959425 43519.944516
144967.575020 11048.866389 232486.701627
10032.923833 749.376821 15439.973976
173982.166479 12486.168362 246511.970273
1356618.434799 67012.274936 647749.534847
430769.778794 21050.899051 196115.632433
736598.495660 35617.399928 319449.140771
443064.309305 21202.575997 182851.737260
295154.423144 13981.063817 115785.863337
580291.068673 27212.938286 216115.438107
36965.575255 5660.343818 76881.822077
82313.613728 12272.362749 163758.235707
69491.028351 10096.651008 132325.193269
40228.404961 5700.597169 73361.733925
41316.014863 5714.014952 72188.371207
25963.594228 3507.091751 43484.606451
144661.237133 19094.105644 232294.751740
10012.232733 1292.779578 15427.009030
46754.064373 5781.103869 66321.557621
1529490.261942 124949.591123 730011.028172
695846.457621 56156.864822 316650.951814
705788.464338 56279.518811 305925.065633
290773.304202 22914.202377 119929.077240
694896.740871 54127.625963 272408.876236
704417.109410 54245.078226 262137.872378
23243.309527 4955.359841 46323.190889
23909.281465 4963.575900 45604.710264
24575.253403 4971.791959 44886.229638
9258.539630 1827.139329 16204.839772
91524.487714 17620.504931 153481.370130
26573.169217 4996.440137 42730.787761
27239.141155 5004.656196 42012.307135
98582.058455 17707.573793 145867.343845
64752.833533 11378.842530 91952.340483
1469505.910115 167626.682210 701111.514745
812904.938259 91545.344308 369750.141467
585359.580578 65092.598858 253590.311019
260112.898345 28567.444956 107217.840679
724830.552139 78636.010005 283945.746608
797095.834131 85438.922540 296394.160113
65302.227687 18637.650971 136286.532227
37868.979558 10511.485513 75593.036992
38956.589459 10524.903296 74419.674275
124062.505051 31044.155784 208327.851201
26516.772268 6477.572463 42695.449696
113242.209303 27016.804898 174856.413694
98382.838120 22939.624160 145742.513315
118790.532391 27085.254254 168870.631987
1467699.926670 215056.561134 699979.893965
723601.957331 104636.278479 328980.149105
136745.003390 19519.036559 59210.836905
926025.305962 130496.737087 381465.907243
1031031.691484 143473.777589 403614.834617
889560.323782 122259.143678 330516.209155
22464.543691 7909.408435 46970.995386
154947.758369 53032.128722 309797.799356
23796.487567 7925.840553 45534.034135
70931.370675 23003.435881 129934.694103
41039.706464 12970.600818 72015.237656
74793.142335 23051.078345 125768.440302
26460.375319 7958.704789 42660.111632
9950.159432 2922.987848 15388.114190
133379.271538 38269.944617 197814.955598
172613.991598 48418.041997 245654.678292
660542.461660 126918.055665 395514.834841
1407929.927512 252107.292629 671214.675316
605109.626019 106906.067122 274982.505068
554136.033180 96613.140572 239807.140356
924933.439390 159172.027231 380781.748756
1612536.101095 273959.624424 630812.066149
795269.159533 133412.205586 295249.574353
22408.146742 9390.540761 46935.657322
8463.464327 3448.304594 16956.740620
8707.798328 3451.318929 16693.142057
148037.496545 57102.031314 271585.576683
199703.287319 75050.037514 350915.428878
107224.033844 39287.915535 180547.788103
109998.195388 39322.140213 177554.897249
61350.912089 21411.377558 94968.576979
45298.043271 15443.133908 67264.075603
262190.751935 87361.345430 373547.274254
123862.156832 33722.977387 117574.755876
1608819.704699 340552.878239 766688.893459
340062.946907 71011.442225 154465.988498
195997.203253 40383.105235 84775.280794
984264.062096 200133.143957 404957.178752
783570.540017 157265.789677 306312.931377
576974.086871 114325.611261 214037.032824
113663.210418 52248.405453 218162.439731
39767.890962 17794.906946 73073.178006
25681.609483 10912.753383 43307.916129
93080.129956 38577.729355 150444.039249
136033.806973 52524.390271 194028.029116
469884.018406 177393.765656 643174.485684
57169.649393 18009.591481 54299.374529
1867030.909847 456256.762782 889394.049388
720969.063042 173783.012737 327330.389857
46992.711500 11175.667275 20316.536106
1496085.157563 351054.864201 615154.521320
537879.666271 124565.649145 210120.275876
576310.690511 131748.145856 213621.351767
78765.768141 43635.642000 165547.261290
8422.082126 4535.110107 16930.810727
38588.178260 20200.351118 74188.829540
162735.936401 82904.287411 299462.872539
103980.019929 51593.250850 183246.271658
74302.598829 35934.041986 125461.068036
192765.501563 90921.298643 311966.882463
317131.343584 145981.383411 492104.361948
255002.340694 114628.741015 379526.844635
46201.447574 20294.275602 65975.290519
340632.793635 146271.319506 466749.935472
34948.819666 12508.910537 33213.849304
1287226.416049 356759.462006 612955.221326
8157.057025 5075.498529 17181.444343
83271.594967 48925.738275 160346.413236
85624.118547 48954.761229 157808.404474
166818.900212 92880.017500 294413.757193
25568.815585 13875.018036 43237.240000
42846.515068 22672.884207 69437.667487
146134.309393 75455.408553 227048.447491
446486.779373 225100.933838 665301.199731
797426.354479 383955.265944 1093818.709930
1378769.966729 459804.967218 825362.071413
558784.928432 183562.802240 319946.996478
1174096.914880 380017.530799 642609.163125
1977277.985384 621713.520178 986791.464860
824207.070136 255514.980340 392320.627763
401429.758949 277111.619174 846691.573697
22848.530884 15323.286126 46075.824438
112851.314309 73570.934330 217653.709427
116047.113817 73610.360733 214205.936482
276570.347075 170819.535292 488821.113047
57821.182004 34800.503933 97904.729178
213818.610138 122430.973670 332623.109212
99540.039693 54360.949319 142455.521374
777607.766105 415072.868017 1067766.732412
968496.096212 455519.356631 1040945.669290
436570.817789 201362.113581 450543.931067
791418.659320 358105.929653 784189.802356
211294.525219 93831.182525 201007.694337
1226886.436998 534890.162227 1120418.462435
1478905.061449 633228.095914 1296324.207745
1512261.607476 614593.878180 1170778.801715
1366537.455292 546135.896948 1014536.060602
1108241.319296 428674.743750 755843.740374
919799.629236 350166.890804 600907.181459
-8400.995492 -9519.415069 52944.221029
-229422.846258 -293929.325007 1623995.128365
-9048.717175 -15665.884763 85413.630702
-16208.219133 -33982.831350 184053.243917
722954.053411 -297802.970040 1302224.568915
1590400.052546 -632413.230228 2745594.439481
108723.985758 -36915.830138 154561.371501
-3069.176033 -2940.941839 19330.684932
-214980.202858 -232970.568626 1520604.007854
-384735.498940 -479656.837542 3108675.792457
-9033.229970 -13245.574900 85238.534486
-94489.840049 -167909.068377 1072910.985672
-753.399945 -8217.633425 51033.994370
50262.924219 -197419.010075 1199990.088615
11249.501351 -13721.746968 80450.531866
187154.444625 -148409.532155 845175.311615
78186.625841 -57071.806690 322648.964550
159817.373563 -100766.827173 561378.792582
207898.091331 -122784.903883 679028.627642
131043.960524 -68757.373208 374671.260015
99752.778654 -47133.459785 253058.036563
1047348.718879 -356607.755530 1803114.422794
1083803.254697 -315684.990558 1536509.027214
-389009.095825 -344542.167941 2749441.233481
-343118.718550 -349902.512190 2770791.777106
-82715.853027 -120452.377521 939230.499863
-2776.902359 -10971.779519 83590.206694
22571.115606 -131490.121716 978743.074533
7494.637027 -24061.841887 177715.827632
53068.389320 -37980.682372 263507.885656
4968.638801 -2587.672590 17394.869963
5317.958252 -2595.873466 17312.408562
35126.680354 -16144.604864 106826.023327
28427.299673 -11704.351932 76224.048817
169621.146221 -66414.799742 429094.793858
7064.555505 -2636.877846 16900.101556
167903.005579 -49242.569722 300766.581378
882933.829973 -250197.001318 1515862.574267
1016839.643813 -261906.613569 1548619.233169
1315109.204148 -328870.637771 1928777.162031
1084137.264851 -263486.541188 1532732.754136
-270890.914121 -186155.883249 1913141.302185
-420505.612304 -333106.393042 3393721.097842
-54424.078891 -50805.686928 513130.746312
-79655.569655 -90336.796052 904490.004989
25072.643674 -62702.874094 590715.261787
81309.318693 -64023.126945 577439.862972
176444.001022 -109723.663183 972502.059117
3574.828469 -2012.979689 17685.512826
78708.573278 -40556.716938 353235.361809
56101.673513 -26651.492603 230104.324817
346474.927840 -133777.161417 1125065.548909
15496.555924 -5636.484886 46988.156403
28442.786878 -9284.042068 76048.952601
123094.678832 -34911.513047 278523.599194
1048112.897063 -237183.493060 1794474.728844
283321.044461 -62078.456102 465518.521890
1239897.428107 -248373.219737 1813435.437261
-50842.485108 -33853.258344 479198.549245
-65077.181144 -52753.240542 738961.989836
40942.018721 -132178.883955 1739547.335142
31962.218374 -57435.677223 748104.955271
1147445.318003 -194220.018463 1959098.767536
1523993.977608 -229507.122007 2222763.847392
128376.998810 -18826.579552 180488.319097
-47272.914581 -18779.252572 445402.278854
-50558.891299 -24561.786414 574113.441986
15700.272725 -5608.462138 110697.974729
70428.999616 -20077.587636 385633.328082
9786.921942 -2539.797135 48126.165330
52758.688815 -10873.230669 197901.452637
13605.981046 -2629.456128 47224.626740
125349.367743 -22831.858106 404652.543180
982886.192306 -110350.306050 1673477.640426
232210.780611 -25340.613913 379426.516334
1267530.779228 -134611.858682 1990089.914388
1429880.653939 -144282.976596 2079700.515153
-58944.686375 -5226.131196 415336.949374
-18678.808316 -1966.897319 150492.974178
-134090.230263 -17126.730303 1262926.765698
-50453.256085 -8053.323054 572919.144713
116802.913316 -16710.062718 820692.178970
8841.634503 -1036.282756 48244.400499
4283.869780 -403.713248 17402.981797
52798.215489 -4696.079873 197454.569473
4982.508682 -420.115000 17238.058995
25368.828289 -1949.855236 76260.279740
6030.467033 -444.717628 16990.674791
899478.792158 -50851.771991 1593451.537787
257079.745540 -14222.053944 436487.301741
44091.349508 -2389.398683 71840.585014
10571.619892 -551.329017 15918.676576
843643.801028 -43234.130777 1223623.989057
-77592.450867 8680.976230 546305.517616
-63480.616306 7935.893607 511123.441213
-33229.935328 4743.007555 312877.512381
-44618.617640 7493.075686 506670.821020
50950.005195 3594.304792 356707.362851
32927.785145 1948.491472 201707.690704
3239.378899 162.778777 17611.163259
40891.767952 1761.523252 199827.688945
11715.406169 377.572630 47461.097077
30902.854859 754.680605 106633.270841
40986.416509 104.168421 72402.104585
47227.256916 -42.346061 70928.873010
11273.726263 -25.841371 15714.551031
-100866.966506 31564.650418 709618.364779
-34901.321978 12425.243758 280850.630122
-67811.746289 28082.351751 638246.653267
-64534.442953 32064.815661 732825.866138
2203292.106983 543080.772335 13451521.543813
5842350.150902 717449.398787 18695055.721222
168284.402420 10361.377802 296454.560905
78364.731904 4353.590557 126975.591268
10229.235381 540.650654 15922.732493
10578.554832 532.449778 15840.271092
167621.066228 7670.681715 233042.585434
-58717.928751 30211.103964 412773.258715
-55166.640283 32420.218353 443652.701159
-57320.311474 39348.235883 539314.350072
-78661.166368 65066.592399 893247.417534
200180.614979 24133.014525 351656.889024
9534.063950 1098.941804 16048.452553
105649.090939 10304.905164 151948.021285
-156561.313018 112190.914511 1099709.509183
-26683.505888 21882.205507 214467.054398
-53768.770534 51604.613327 505721.919720
-52877.185804 61279.191727 600465.112296
3817490.704702 1023994.557994 10005114.203498
25110.545046 4507.065045 43984.263574
26065.309823 4484.650296 43758.878927
44153.298327 7291.840771 71140.200149
81190.846536 12885.994852 125699.457501
28929.604151 4417.406051 43082.724984
29884.368927 4394.991303 42857.340337
50394.138733 7145.326288 69666.968573
-105134.738227 96641.075991 737904.091610
-59054.799545 62189.762040 474348.736831
-53675.155054 66234.656221 504663.515921
-89691.547190 133819.214850 1018520.793427
152546.765939 36366.110280 266473.959094
42608.575430 9748.779255 71333.411826
129864.953508 28556.227915 208658.899593
27984.316712 5920.920430 43200.960153
-77094.324148 86527.239491 540673.765107
-71103.224767 91497.130514 570777.674251
-84540.612802 127586.367375 794576.888077
-83832.872145 153122.458803 952000.715362
821277.893265 254526.369371 1494773.563878
72932.558156 21678.624607 127039.941279
42624.062634 12169.089119 71158.315610
78474.759661 21548.511876 125731.632506
45744.482838 12095.831878 70421.699822
10592.424712 2700.007368 15683.460124
-30546.917269 40507.142004 214066.405782
-111390.916099 169452.802194 893635.137046
-46620.148621 83233.726847 438022.196256
-63856.020214 138087.385915 725155.711516
22478.109287 51362.067377 264452.426802
652915.816032 242257.754913 1184985.237002
72960.065096 25977.354937 126728.951589
9547.933830 3266.499394 15891.641585
89586.669611 25587.016745 122804.025269
-81533.844323 124763.893938 570901.236294
-151558.410096 266192.676638 1215133.665236
-152802.761643 315146.590779 1435123.225339
-32673.579106 81681.360176 371056.450229
1517.053936 3997.008940 17749.051071
208173.207404 83016.305788 345586.530973
-67529.930809 117160.285866 472470.295499
-103004.825748 205207.655943 825349.068874
-60144.429141 140772.683888 564682.625843
-69217.493628 196485.834290 786054.495990
822243.864540 405486.458930 1483852.424861
184681.755869 87453.404527 318976.702942
108901.835205 49589.499752 180272.608681
84099.481985 34314.590135 123490.354661
-109083.061938 211640.207736 762578.182969
-203383.696079 453288.600437 1628644.658147
-83949.795697 219918.101648 787897.190757
-83121.857657 264238.403429 943962.082887
684389.340119 379238.918934 1231561.902470
41125.801352 21886.957194 70826.238639
340835.096733 174473.781741 562613.021023
44246.221555 21813.699953 70089.622851
81355.888171 38678.376830 123833.519358
10606.294592 4867.564958 15526.649156
10955.614043 4859.364082 15444.187754
207215.565940 88931.270282 281635.037519
