ply
format ascii 1.0
element vertex 1174
property float x
property float y
property float z
end_header
77.666562 -15.435728 434.864346
46.728618 7.377751 434.384961
0.063317 53.030149 431.634572
7.668610 53.042870 430.738761
-2.827750 -132.350281 2121.938898
441.758804 -62.285893 745.318173
562.196278 -77.056647 912.550870
452.300467 -93.217381 2118.055061
487.508254 -93.698040 2105.529744
431.434981 -62.534752 1330.678646
186.898190 -19.199256 371.884991
212.342940 -21.146511 404.664449
564.499114 -51.552287 948.688129
475.918662 -42.343571 771.043326
338.146461 -30.066803 1732.159449
441.983593 -26.888725 1362.040312
1516.561278 -88.664508 4394.835945
26.411911 -1.109274 52.225216
604.392220 -25.084727 1012.731569
336.112724 15.554277 1724.692053
452.440764 10.809400 1393.066202
711.746084 11.328044 1673.985250
836.447704 10.527543 1712.548323
706.289357 8.245778 1385.684704
564.494823 6.122871 1062.960707
584.187696 5.854023 1055.954885
264.693275 66.551787 1865.745672
445.436289 55.225931 1553.772205
581.645201 38.602499 1092.526424
582.794321 37.110421 1050.838743
735.906670 216.366368 3456.436786
717.287508 119.049793 1860.368463
829.621575 125.021643 1943.689126
620.786692 67.829124 1031.710959
271.397726 170.853912 1927.694285
309.542876 173.860391 1955.034428
366.863756 155.441644 1730.089965
495.117383 157.217968 1725.373773
635.762562 169.406823 1838.980422
668.384531 168.961467 1827.375022
701.006500 168.516110 1815.769621
719.054922 164.742474 1768.438381
656.402483 112.689221 1177.070408
619.393318 99.085522 1026.594817
71.057511 11.335978 117.085305
-16.600440 198.190131 1776.681377
413.163865 228.744275 1949.600831
446.432288 228.290093 1937.765451
479.700712 227.835911 1925.930072
429.097663 178.447454 1495.943770
647.279179 252.864091 2110.670656
532.122065 167.935636 1377.839973
571.514382 171.950512 1404.552212
734.589371 178.829528 1427.990048
635.773160 143.757264 1137.334438
801.113079 168.816019 1322.871524
444.078372 281.093515 1929.122427
468.036366 275.188353 1880.057271
500.658334 274.742997 1868.451870
522.676965 268.864312 1820.076650
565.902272 273.852283 1845.241069
598.524240 273.406926 1833.635668
599.540825 234.346431 1549.479880
688.821096 216.393315 1396.092051
732.692855 221.372462 1421.026492
900.808828 235.811591 1482.844540
450.342689 340.382789 1957.771212
474.992878 333.442754 1908.644023
498.350158 326.520370 1859.976793
530.972126 326.075013 1848.371392
608.066571 331.626025 1861.302506
628.838032 324.738943 1813.555190
823.406345 335.289706 1825.052270
618.881691 232.425691 1252.087999
642.453291 232.103891 1243.702304
909.247839 294.496736 1552.367112
919.029508 287.759666 1508.529333
496.041981 378.297743 1851.501715
539.175808 385.337811 1876.330240
651.432299 391.434214 1876.568091
691.773793 375.625603 1781.869312
696.869570 345.040300 1619.362216
503.553468 438.595415 1879.522596
358.897819 293.446128 1251.165342
716.862398 444.337669 1843.626404
722.087585 426.957619 1761.788834
787.331522 426.066906 1738.578033
819.953491 425.621549 1726.972632
527.953915 597.511243 2299.218223
449.676190 472.742673 1809.598971
491.425628 481.852489 1834.551561
667.337960 576.248802 2170.021521
621.913502 480.071062 1788.129958
654.535471 479.625706 1776.524558
671.499041 392.276054 1412.243446
403.958574 663.254989 2331.823230
444.338002 662.703727 2317.458082
558.837954 703.961390 2435.207874
554.361388 532.739149 1802.865682
880.108054 571.112861 1845.463580
441.480944 726.793688 2306.967643
481.860372 726.242426 2292.602494
703.174980 664.567807 2016.685219
740.322130 664.060672 2003.469966
843.031682 686.119735 2045.803992
881.471742 685.594949 2032.128781
796.881972 569.443478 1667.855071
812.064043 557.505582 1623.017299
843.393102 557.077877 1611.871857
487.840124 688.163238 1964.948329
523.047910 687.682580 1952.423013
-27.721611 475.419634 1356.963224
-28.499896 495.962429 1312.007355
-29.186701 514.453128 1267.387380
1821.105723 -97.866129 2658.537094
1902.100042 -15.552019 2578.279079
218.284644 12.924171 507.980440
225.827736 12.818480 502.297219
301.258662 11.761569 445.465006
284.740048 26.060575 454.668259
230.505970 40.888037 492.287619
229.073541 54.975661 490.124430
248.837960 82.833835 468.748387
743.384832 217.728722 1176.056500
732.022778 329.472003 1158.898044
2655.224192 -125.697098 1601.161971
35.255430 0.668536 45.311184
33.070547 2.146258 47.352174
1527.271518 74.278597 1324.756526
38.087025 3.615846 41.192942
23.668389 12.483656 54.929832
43.079632 18.362747 31.038375
533.365939 -1.357685 621.893717
546.740693 -1.870142 597.219894
1149.925832 -244.293574 1286.018502
1719.818598 -218.089483 535.291447
1735.333263 -218.051100 503.068926
1825.289740 -227.258644 490.700257
1841.462033 -227.218634 457.111904
1141.147929 -122.597568 687.634592
1415.379767 -48.884020 634.620079
1562.458198 -52.345563 590.148232
1314.116430 -2.297264 1102.506962
1358.837169 -2.315127 1096.547443
81.382218 0.050016 12.086546
1321.181618 52.455451 1431.784376
1364.885091 53.581709 1427.860128
1127.358117 43.830850 1139.587317
1169.088707 44.952227 1139.760564
1487.924760 55.922379 1346.005769
1790.119725 52.597465 370.999597
1805.634390 52.635848 338.777076
1975.992454 57.129854 332.334422
1992.822375 57.171491 297.380237
1363.369001 109.973836 1427.197327
1296.864277 98.985443 1131.489894
1341.194552 101.259888 1126.186339
1325.920724 99.057329 1071.142347
1370.908627 101.333401 1064.472960
1416.554158 103.611099 1056.437741
1384.033619 99.201100 950.447253
1398.561843 99.237042 920.273479
1235.802499 152.808480 1341.574268
1250.659537 152.845237 1310.717578
1339.086983 149.752597 1040.373152
1353.615207 149.788539 1010.199379
1414.086950 153.249555 971.293994
1428.943987 153.286311 940.437305
2416.508354 283.325656 358.248849
2436.955228 283.376241 315.782588
1292.445070 256.567276 1216.929716
1307.302107 256.604033 1186.073027
1366.725759 262.355728 1149.189438
1411.950000 268.072295 1141.796707
838.091721 212.734077 946.689298
1305.909317 308.409918 1185.464130
1467.516043 342.566326 1282.103589
1484.017149 342.607150 1247.832321
810.113065 240.523321 916.002901
1245.088377 360.068779 1308.281990
1287.949272 368.072772 1305.642718
1274.802452 360.142291 1246.568611
1289.659490 360.179047 1215.711922
1101.584436 304.428063 1001.674545
1583.245578 431.986977 1383.370327
1601.061940 432.031054 1346.367395
1528.948081 408.158779 1237.004697
1545.778002 408.200416 1202.050513
782.196060 266.019443 885.343456
1370.444754 448.366610 1389.632168
1386.617047 448.406620 1356.043815
1688.243029 521.509578 1420.005300
1707.045832 521.556096 1380.953621
754.340705 289.222444 854.710963
1229.217628 453.456948 1248.017042
1243.745852 453.492891 1217.843268
726.547000 310.132325 824.105422
1226.052970 515.449679 1337.311989
1199.774091 481.371069 1133.451759
1256.741920 492.849872 1101.281201
-505.883163 -402.933608 1893.340873
-475.210137 -408.790935 1930.251523
-484.544419 -452.751942 2148.610018
101.217476 -325.722888 1935.132379
135.981649 -319.926110 1909.970863
205.272798 -313.673215 1890.976082
241.005747 -313.201168 1897.358211
-459.317277 -201.449294 1298.988881
-619.177113 -204.470828 1642.676856
-432.681052 -160.156876 1301.018160
-210.329579 -171.169603 1465.720886
-185.086955 -174.323659 1501.476717
-416.143034 -162.560659 1831.400613
-61.190956 -83.558582 990.412231
-41.738657 -83.301608 993.886534
-466.245717 -95.094345 1600.807677
-433.527701 -94.662126 1606.651321
-664.998906 -49.666920 1655.151872
-409.345657 -42.014561 1514.438612
-347.527549 -41.197918 1525.479715
23.741024 -37.005811 1622.853039
54.290155 -35.889732 1597.246883
204.857579 -33.188160 1593.076749
286.204996 -34.963571 1731.855601
313.136204 -33.895287 1705.603261
356.387913 -31.186378 1620.141020
-906.754914 0.104963 1608.443307
-388.850254 6.946708 1700.944336
-280.098448 6.895923 1503.362603
-254.860515 7.441819 1538.871040
98.706439 10.412656 1354.014048
127.562294 11.006347 1390.168669
165.031904 10.651370 1272.857964
214.717955 10.457776 1157.729068
319.634268 14.606160 1579.477853
-1000.838654 67.752586 2021.257729
-971.380989 69.279229 2057.458199
-736.575630 58.731172 1728.126289
-711.941860 60.194090 1763.465181
-401.381671 51.784281 1478.602706
48.406510 52.038701 1404.241975
239.444426 54.562395 1438.362548
272.520019 56.136833 1475.209203
249.314569 46.730321 1223.551522
265.394355 45.805247 1195.484328
-726.738862 75.414254 1139.496476
-401.440627 98.274064 1475.494225
21.418693 95.610224 1427.509531
168.911780 87.246186 1299.465312
249.269689 82.120253 1221.185219
-709.052876 110.825927 1109.296233
318.668420 166.227585 1724.275752
-691.364544 144.387624 1079.219686
-1194.292273 290.331391 2188.808220
-1147.102569 290.954787 2197.236598
-794.097192 256.493088 1952.743281
-752.937360 257.036827 1960.094686
23.434514 204.692982 1606.692155
138.418651 190.561951 1504.212126
193.694167 163.904643 1298.805196
223.751307 168.214216 1334.927820
-673.673866 176.099345 1049.266835
-401.617495 237.743412 1466.168783
113.585642 244.549468 1558.187303
146.656543 249.823858 1594.786565
216.514728 226.559171 1453.800721
249.585628 231.833561 1490.399983
-655.980841 205.961090 1019.437681
-837.835029 364.909009 1844.623802
-810.795175 371.028729 1880.084243
-401.676451 284.233195 1463.060303
22.608486 289.838182 1538.840260
51.959853 284.463414 1513.451647
81.662933 284.855805 1518.756804
111.366013 285.248195 1524.061960
-638.285471 233.972860 989.732223
-1002.805712 409.720252 1749.997843
-401.735407 330.722977 1459.951822
24.652764 376.480842 1719.523314
67.158488 437.229973 2002.238805
177.445339 345.061721 1593.966459
204.385931 338.730102 1568.208905
295.304132 339.931171 1584.447467
-620.587755 260.134654 960.150461
84.658048 391.251526 1574.234476
126.358741 429.865004 1734.220858
157.521416 422.664157 1709.279033
234.633042 385.620241 1570.513278
259.765845 378.339738 1544.494480
295.245176 386.420954 1581.338986
-602.887693 284.446472 930.692395
-88.937336 547.361574 1935.868013
-50.189451 547.873450 1942.788629
-585.185284 306.908315 901.358026
39.424790 97.521665 314.076374
-567.480530 327.520182 872.147353
-475.344401 -211.814639 1879.529324
279.787910 30.834860 641.935588
282.385175 -4.376328 652.916782
809.234440 -11.323001 1728.853472
434.539297 17.131750 551.419123
1025.039899 124.665259 1578.321558
418.262889 -76.975770 367.593263
383.577598 -61.483335 398.907314
1106.260825 26.255859 1106.695301
288.225480 55.850712 487.593432
246.796140 -77.256187 529.353667
257.169542 -78.094785 528.689677
242.331700 -70.460015 468.394921
276.580466 -74.108913 474.579462
280.554926 -73.273429 463.315929
297.730741 -76.781997 482.393125
297.223307 -74.794411 463.900125
302.308168 -75.162773 463.168229
313.422014 -77.001983 471.410017
310.839342 -75.480424 459.081644
314.242864 -75.429113 455.756906
322.968472 -76.640702 460.015910
315.620913 -74.062109 441.598667
318.541199 -73.112818 430.130560
334.826441 -76.014762 444.176682
343.391122 -77.125067 447.605885
329.667797 -73.268810 422.342496
339.158712 -74.590147 427.008193
345.854881 -75.278164 427.975640
340.794396 -73.424801 414.554433
375.372094 -80.049013 448.780969
371.360865 -78.408406 436.510145
358.023970 -74.854632 413.803453
360.769162 -74.695073 409.997146
380.884977 -77.353654 418.534880
395.375233 -79.537266 427.240528
374.174191 -73.892775 391.190242
413.020175 -80.081715 417.717202
246.621000 -69.776390 528.720149
233.045826 -64.952269 489.203931
262.129888 -71.954278 538.603198
250.732131 -65.913123 484.365719
276.730031 -67.079605 474.652349
276.684399 -65.385845 456.773797
280.769927 -64.730231 446.372887
298.209442 -67.915408 465.273767
306.691324 -69.014551 469.706121
318.290786 -70.781177 478.554877
303.180441 -66.648432 447.654519
315.272631 -68.511074 457.101008
328.457324 -70.567263 467.668185
310.819686 -66.042633 434.766111
335.922557 -70.582815 461.500277
335.910329 -69.067746 445.483654
319.034846 -64.910247 415.818731
347.928605 -70.038245 445.555397
352.341048 -69.476323 435.868281
336.505857 -65.689854 409.245829
371.048527 -71.699054 443.512477
357.923765 -68.485253 420.648792
366.822180 -69.501121 423.846901
351.148764 -65.895143 398.996525
391.535108 -72.075377 430.115511
381.217730 -69.524719 411.885423
380.270139 -68.085651 397.466201
414.080719 -73.460797 425.646575
400.491965 -70.418721 404.993047
246.445465 -62.316417 528.086482
261.605090 -64.192147 537.276562
241.898864 -56.867089 467.151203
285.880193 -61.998079 490.112140
283.664436 -59.987019 468.090375
311.320601 -63.463548 485.505880
315.017562 -62.723375 473.489059
325.034139 -63.972606 479.678711
315.424305 -61.382679 457.174922
330.392695 -63.572527 470.270480
310.515519 -59.096268 434.209463
339.267071 -63.855348 465.944746
343.522038 -63.281398 455.423160
316.820087 -57.759061 412.824275
328.052541 -59.183732 420.048612
358.746557 -64.049242 451.367135
356.394639 -62.986669 440.755547
351.931826 -61.577704 427.849856
361.239745 -62.579398 431.706779
320.299837 -54.956651 376.443938
383.262623 -65.105750 442.693303
362.094467 -60.928184 411.307457
372.623646 -62.105399 416.195370
388.264812 -63.512682 419.390959
370.137809 -59.456955 386.819401
403.858358 -64.285693 415.076560
399.541739 -63.037183 403.954427
246.269482 -54.876255 527.452554
261.422837 -56.543750 536.652279
234.852280 -48.688127 453.389326
339.193811 -60.336313 518.999682
324.758001 -56.461657 479.116639
306.342726 -52.669792 443.905410
333.664856 -56.725104 474.768598
398.590669 -55.695281 402.915396
246.093104 -47.455916 526.818476
278.764420 -52.189052 571.875528
245.916278 -40.055390 526.184137
268.965033 -42.554969 551.572132
245.739056 -32.674685 525.549648
269.130411 -34.782502 551.652725
237.427317 -29.473035 457.742582
245.561387 -25.313795 524.914897
279.967386 -28.078521 573.532650
279.515141 -26.293715 517.199678
280.374126 -25.149755 479.776253
294.547061 -26.119123 494.404000
300.163951 -23.500530 404.554018
245.383322 -17.972725 524.279998
276.005834 -19.704180 565.176754
289.085175 -18.802435 504.079404
281.310357 -18.101553 481.189081
283.163211 -18.028882 475.170100
276.896733 -17.447793 455.946090
307.444435 -18.980907 487.451133
300.942610 -18.396519 468.391855
316.840298 -18.816695 466.708419
331.760081 -19.519099 479.875547
349.486189 -19.333567 446.691110
669.246124 -33.266865 675.247143
245.204809 -10.651471 523.644836
273.762568 -11.640899 560.335464
290.792789 -11.447682 506.850129
282.247431 -11.013715 482.602320
287.295193 -11.113936 481.903150
289.550479 -11.106283 476.545855
292.171875 -11.113582 471.877072
307.601380 -11.604792 487.527615
304.450712 -11.393721 473.673776
314.290012 -11.669112 480.011970
319.546344 -11.772256 479.166737
321.785616 -11.764380 473.820726
327.950615 -11.899899 474.228861
331.937619 -11.955796 471.438158
336.376283 -12.027843 469.276010
338.540636 -12.018915 463.982364
343.898631 -12.123486 463.066047
346.482550 -12.130258 458.423420
350.453508 -12.185930 455.643949
355.381237 -12.274650 454.084100
359.362892 -12.330472 451.297141
361.388212 -12.319595 446.100885
362.381877 -12.274621 439.737421
366.809844 -12.346517 437.582760
367.207430 -12.283368 430.691826
371.614003 -12.354965 428.552140
667.841742 -21.210623 673.699437
245.025900 -3.350035 523.009525
268.067552 -3.668930 548.457563
283.971381 -3.897074 485.355603
289.041170 -3.967868 484.641766
291.317041 -4.000151 479.269137
265.733798 -3.648259 429.142576
307.122634 -4.220800 477.655095
303.393456 -4.170212 463.256907
365.999236 -5.045478 444.003679
371.464801 -5.121821 443.012744
372.414410 -5.135699 436.678615
361.043282 -4.979103 416.290585
669.665950 -9.255162 709.576530
244.846544 3.931584 522.373953
282.380495 4.265875 577.385859
299.066768 3.451598 510.887021
290.788834 3.257470 487.381204
285.410672 3.102735 469.406962
299.431623 3.156313 483.222001
303.769047 3.105509 481.131142
308.537156 3.058673 479.684021
311.200077 2.991323 474.984670
321.582942 2.995846 481.894601
331.795856 2.902693 479.471827
332.698663 2.819996 472.223834
319.964602 2.628306 446.166057
347.544539 2.761949 476.009805
352.079903 2.708371 473.780472
337.433393 2.513475 446.225875
358.568011 2.497339 457.897216
364.176131 2.288639 441.684711
361.617687 2.194431 431.188394
351.347566 1.577969 366.544792
244.666792 11.193385 521.738231
283.934658 12.455364 580.285019
292.145595 10.746840 498.904901
296.924854 10.719673 497.450551
296.067549 10.492680 486.705639
299.995716 10.437608 483.956118
310.561245 10.608165 491.687394
308.692414 10.355518 479.759682
314.333401 10.356104 479.592909
319.155419 10.328336 478.108554
318.764094 10.134646 468.928372
328.863677 10.271901 475.094969
332.856029 10.215929 472.300522
325.993756 9.834113 454.413880
345.416969 10.239005 472.962581
346.221986 10.088295 465.781209
348.357101 9.978691 460.505099
350.923077 9.882963 455.872780
358.247183 9.919705 457.364171
360.318112 9.811001 452.132988
351.082760 9.402702 433.071193
368.787204 9.712186 447.150493
369.276641 9.565900 440.190011
378.289178 9.638723 443.335775
372.586441 9.340239 429.364598
381.657814 9.412237 432.469180
391.879822 9.507940 436.659267
389.578333 9.301194 426.925212
352.003043 8.274414 379.484061
244.486593 18.435368 521.102248
297.928881 21.623600 608.522571
381.297265 16.726132 431.961259
244.305998 25.657535 520.466115
294.653921 29.839828 601.572157
244.124955 32.859882 519.829721
265.083914 34.452853 541.113649
243.943517 40.042415 519.193177
280.476198 44.474098 572.174290
243.761630 47.205126 518.556372
292.077140 54.656489 595.497404
243.579349 54.348024 517.919417
278.739379 60.126749 568.115226
-60.723344 -65.173913 548.856873
-19.991509 -65.244790 548.057787
-15.078073 -63.920643 536.759103
-6.103883 -63.407769 532.140704
-1.781363 -64.710775 542.945399
2.724683 -65.849243 552.360746
7.226227 -64.526039 541.084093
16.137259 -64.095362 537.158777
24.366434 -62.025123 519.475102
29.340422 -63.572808 532.314189
32.580928 -61.103700 511.448568
38.164717 -63.470550 531.152453
39.979907 -59.281528 495.878502
46.339395 -62.467160 522.438282
48.568265 -59.672150 498.867858
57.934005 -65.886982 550.787327
55.640007 -58.261007 486.764002
70.859272 -60.934023 508.711471
71.527085 -57.896417 483.155304
75.059286 -57.478052 479.517676
80.595057 -58.614166 488.877979
78.298218 -54.024276 450.375254
78.440461 -49.182633 409.672838
102.501116 -62.010386 516.675512
97.897319 -54.389695 452.775696
109.364287 -56.414853 469.405946
-60.656765 -58.210189 548.200324
-57.846535 -59.891021 563.915211
-20.322681 -59.144896 555.700108
-15.091593 -57.152224 536.796000
-1.812964 -58.075498 545.053042
2.716218 -57.258186 537.223168
7.272761 -58.494857 548.705841
11.654448 -57.311082 537.434855
16.174428 -57.520814 539.262478
24.410006 -55.594627 520.887486
29.872160 -58.002972 543.358352
33.244516 -55.867838 523.174096
38.788505 -57.762491 540.812144
47.123572 -56.863099 532.088837
55.389249 -56.183951 525.438678
65.365164 -57.261501 535.251930
56.321353 -45.691466 426.748996
98.314071 -48.823145 454.853703
94.856529 -43.549205 405.373826
-60.590159 -51.263866 547.543741
-58.084580 -53.004000 566.035244
-21.375975 -54.471863 580.627932
2.672064 -57.908568 616.592866
11.842033 -51.680026 549.878165
15.755300 -49.149253 522.765287
21.099540 -51.982145 552.832195
29.211313 -49.894399 530.323648
-60.523511 -44.334932 546.887003
-57.725514 -45.615717 562.604622
-60.456835 -37.423396 546.230231
-62.369168 -41.492795 605.666345
-60.390117 -30.529250 545.573302
-61.114667 -33.230847 593.910281
-60.323364 -23.652499 544.916279
-64.192450 -27.007179 622.405598
-60.256584 -16.793144 544.259223
-64.805831 -19.365888 628.000702
-36.070964 -18.008362 584.369712
-29.094511 -16.870048 547.422963
-24.839762 -17.029720 552.715943
-19.769568 -16.658116 540.713578
-60.189762 -9.951182 543.602010
-64.821574 -11.484242 628.043667
-24.957747 -10.107641 554.829801
-20.130861 -9.996759 549.050716
-15.511772 -9.948748 546.733310
-2.000545 -10.092530 555.672279
2.612823 -10.044533 553.355180
7.191867 -9.996614 551.039916
11.758728 -9.973681 550.105518
16.263774 -9.913453 547.104136
20.970690 -9.990033 551.683165
25.418898 -9.917455 547.994685
29.775944 -9.832607 543.620943
34.302391 -9.822246 543.378845
38.828837 -9.811885 543.136746
42.997473 -9.714989 538.083005
46.688158 -9.531832 528.223985
51.407262 -9.583427 531.422210
55.569061 -9.523984 528.439125
59.611100 -9.452336 524.772369
63.755369 -9.405412 522.480359
67.694436 -9.334000 518.819111
70.755843 -9.152284 508.993749
-60.122905 -3.126614 542.944703
-65.285860 -3.626315 632.251605
-43.373774 -3.500518 617.276436
-25.735361 -3.206748 570.092229
-20.057702 -3.068944 547.013275
-15.455723 -3.047064 544.696645
-11.116216 -3.074952 551.366142
-1.996226 -3.069205 553.639032
2.598094 -3.066252 554.773610
7.172632 -3.033089 550.387957
11.722737 -3.015110 548.764286
16.400928 -3.030876 553.345177
25.630776 -3.013531 553.541699
29.830075 -2.958535 545.035194
34.169677 -2.929691 541.352290
38.905851 -2.937761 544.549773
40.326720 -2.703804 502.373950
46.504324 -2.822035 526.199189
51.581410 -2.852016 533.519360
59.597789 -2.788282 524.808697
63.104493 -2.738653 517.029358
67.852108 -2.746696 520.226229
69.284620 -2.622392 498.064482
-60.056021 3.680560 542.287362
-67.320613 4.435600 651.038453
-39.341746 3.885257 563.266098
-20.912713 3.961846 567.111846
-15.376283 3.797575 541.968281
10.321557 6.849687 960.930036
91.744536 3.511942 461.696484
-59.989095 10.470338 541.629864
-20.520615 10.914598 557.465473
-15.646280 10.776021 549.611963
-11.143984 10.827163 551.441927
-6.500590 10.756119 547.052094
-2.073278 11.011273 559.239858
2.573497 10.831338 549.327749
7.150162 10.882651 551.153735
11.650963 10.797668 546.081252
16.473425 11.040113 557.557604
20.883961 10.914087 550.419178
25.320989 10.856182 546.730599
30.548353 11.140391 560.256065
34.300779 10.835900 544.179541
38.560886 10.763977 539.810148
43.365114 10.856648 543.694732
47.215867 10.702116 535.205754
52.116922 10.808619 539.775375
53.686764 10.226887 510.010474
61.197998 10.843018 539.979948
63.715593 10.508475 522.588916
67.911086 10.490854 520.984025
72.174799 10.487001 520.065702
75.458777 10.344783 512.297254
79.232203 10.285359 508.644167
81.649175 10.059485 496.780612
85.809496 10.069007 496.558095
-59.922141 17.242725 540.972334
-68.475378 21.104973 661.542017
-16.476404 18.479946 573.853904
-11.421898 18.112258 561.848489
-6.751993 18.100637 560.908394
-2.025765 17.843744 552.372033
2.551291 18.188861 562.481714
7.173227 17.998655 556.021779
11.714194 17.852884 550.946822
16.542961 18.198577 561.043041
21.004718 18.008007 554.591735
25.447992 17.884321 550.212265
34.564251 17.882877 549.034356
52.309664 16.250295 496.312739
63.781987 17.168930 523.311165
69.776014 17.606526 536.106231
69.428849 16.423336 499.538902
76.897950 17.198952 522.609653
79.424347 16.803166 510.049131
77.955920 15.617409 473.541742
87.050577 16.642147 504.118803
-59.855145 23.997715 540.314647
-68.641605 29.465749 662.975941
-59.788115 30.735310 539.656865
-70.454467 38.731026 679.686797
-59.721057 37.455515 538.999050
-66.129552 44.458952 639.455529
-59.653957 44.158322 538.341079
-64.722887 51.398152 626.303968
-59.586829 50.843739 537.683075
-64.813469 59.319328 627.041291
-59.519660 57.511757 537.024914
-66.327446 68.669997 640.975919
-233.554482 -65.656854 517.547061
-229.975382 -67.002350 532.130357
-225.114688 -66.825227 532.699109
-219.122704 -66.310115 530.552158
-212.348791 -65.542859 526.350310
-207.312296 -65.283403 526.210953
-202.835649 -65.192820 527.430996
-198.359001 -65.102237 528.651040
-192.341658 -64.507843 525.755042
-164.801757 -63.635496 530.236672
-160.599239 -63.629229 532.137963
-146.070583 -59.554135 499.809865
-150.726494 -63.035592 531.048654
-145.932981 -62.781052 530.843076
-141.548898 -62.692343 532.037892
-131.328139 -61.855348 528.775495
-120.837689 -58.886015 505.174734
-121.462504 -61.104309 526.172270
-113.059720 -58.964954 509.562501
-116.353439 -62.733938 544.196492
-101.243457 -56.914073 495.395003
-102.364057 -59.693806 521.549313
-95.320404 -57.975819 508.349110
-93.378699 -59.196901 520.974181
-87.366640 -57.972424 512.028767
-76.815134 -53.662718 475.592833
-80.192152 -58.536210 520.787999
-72.433278 -55.858474 498.710819
-69.086579 -56.263396 504.158878
-65.218374 -59.651147 538.476808
-56.253922 -59.075889 537.139958
-42.246047 -52.726908 482.746120
-233.379480 -58.554521 516.845380
-228.030358 -59.282274 527.375238
-217.543503 -58.721748 526.453253
-215.564602 -59.308698 533.796584
-211.561392 -59.367031 536.399657
-203.238568 -58.223302 528.083887
-198.493382 -58.057617 528.621087
-193.759789 -57.892173 529.155191
-164.267659 -56.459425 528.120793
-162.896669 -57.407004 539.078466
-150.046673 -57.355985 544.848502
-141.873827 -55.866966 532.711900
-138.046550 -55.998516 536.022929
-130.004354 -54.442473 523.094692
-122.545495 -53.037565 511.519470
-125.165247 -55.877206 541.045593
-113.677546 -52.649127 511.668272
-117.437898 -56.208502 548.443519
-82.261333 -41.493915 406.074101
-102.490797 -53.049760 521.521063
-93.607402 -50.571043 498.994081
-70.891072 -42.239162 419.756895
-71.354402 -44.408175 443.066676
-233.204155 -51.470402 516.143833
-239.673532 -53.781403 541.597055
-240.369061 -54.885525 555.015675
-208.974714 -50.556223 517.455127
-210.325938 -51.855289 532.963099
-203.104411 -51.103580 527.371091
-198.627763 -51.012998 528.591135
-194.408256 -50.988179 530.497136
-168.848167 -50.834331 541.999192
-155.960831 -52.148079 565.167733
-139.868216 -49.642352 542.337117
-117.944377 -43.385143 475.735177
-233.028458 -44.404485 515.442306
-209.668074 -43.725997 518.784769
-206.342132 -43.864500 522.715264
-201.894410 -43.774503 523.927424
-199.814500 -44.195474 531.298438
-193.513575 -43.707822 527.723525
-232.852439 -37.356780 514.740914
-238.434599 -38.867061 538.168452
-209.239656 -36.667270 517.396074
-215.270347 -38.398344 544.481521
-204.718423 -37.253279 530.724708
-197.843476 -36.733078 525.794128
-196.994672 -37.308710 536.609850
-232.676047 -30.327280 514.039542
-239.181535 -31.655406 539.483854
-231.853772 -31.208009 534.676604
-232.231618 -31.780666 547.426270
-207.480414 -28.953328 501.249334
-203.194680 -28.866608 502.417347
-212.659350 -30.719914 537.639691
-209.430448 -30.820756 542.299809
-200.874971 -30.149104 533.290962
-193.781296 -29.673207 527.663852
-163.926900 -30.730912 573.602018
-150.743532 -29.832674 562.830304
-111.437547 -30.765602 612.856423
-92.938997 -26.934763 539.270200
-232.499334 -23.315990 513.338304
-231.394984 -23.920981 533.296402
-243.488846 -25.541014 573.094948
-224.395857 -24.358441 553.349015
-210.044857 -23.223560 530.798579
-224.654865 -25.232304 580.496021
-199.428909 -22.863982 529.155551
-194.430827 -22.714592 529.005622
-177.016743 -22.410484 535.263651
-164.004099 -22.195436 540.322133
-232.322247 -16.322906 512.637088
-227.244430 -16.640745 535.190481
-234.096314 -17.635584 576.418140
-209.629746 -16.074028 529.406344
-211.593844 -16.474273 547.016307
-202.465093 -16.034202 536.651340
-192.501027 -15.517144 523.489764
-190.538226 -16.483831 574.680291
-181.602717 -16.032649 563.506577
-168.186432 -15.175360 537.676899
-162.398972 -14.968128 534.717825
-136.078225 -14.465582 543.403248
-132.326967 -14.449762 547.449859
-117.921761 -14.068154 546.839421
-104.435875 -13.329625 527.077171
-87.839776 -12.558205 509.674661
-83.864104 -12.492779 511.514188
-80.830087 -12.566576 519.145540
-73.724083 -12.032245 501.424796
-232.144839 -9.348031 511.936005
-207.009696 -8.869001 522.566470
-221.983541 -9.597760 572.922067
-202.865504 -8.891588 537.305015
-194.182876 -8.621284 527.574343
-168.544438 -8.132071 538.342036
-163.838553 -8.030937 538.868528
-157.660984 -7.858629 534.503604
-150.992203 -7.788737 544.637751
-145.130669 -7.628738 540.942786
-141.048890 -7.557972 543.567393
-135.663203 -7.419428 541.254859
-131.752794 -7.358043 544.588725
-125.750958 -7.183378 539.419881
-121.012519 -7.075671 539.199156
-115.977576 -6.950138 537.547122
-108.986425 -6.708147 526.599437
-105.453516 -6.666227 531.342537
-101.862766 -6.623138 536.101464
-94.660424 -6.353219 522.187040
-90.188108 -6.250897 521.893787
-84.487824 -6.064593 514.374617
-80.716266 -6.006018 517.670642
-71.687122 -5.569038 487.620746
-231.967058 -2.391363 511.234943
-225.665330 -2.084988 555.292307
-227.257974 -1.986261 585.857147
-205.643473 -1.750123 544.115434
-194.316736 -1.603976 527.544507
-175.164579 -1.107847 558.470532
-164.408806 -0.979641 540.231928
-156.945896 -0.873348 531.680835
-152.120330 -0.782094 531.483837
-153.733712 -0.718920 553.726260
-145.069829 -0.610684 540.209977
-142.127702 -0.525600 547.060343
-121.777560 -0.318240 504.218013
-121.250935 -0.240511 520.238968
-91.149313 -0.062608 426.373209
-100.633081 0.013787 487.298466
-91.231647 0.360526 526.908141
-76.658254 0.492518 492.320312
-231.788929 4.547096 510.533959
-214.713017 5.519993 553.747803
-195.484695 5.441613 530.257207
-181.123380 6.421088 576.511573
-168.250097 6.226418 552.045049
-143.964650 6.631712 553.371125
-140.329356 6.766777 558.142278
-123.782922 6.572624 530.140365
-123.765765 6.892809 549.803125
-117.681621 6.892904 543.900451
-109.706178 6.771349 528.684212
-106.306267 6.913954 534.147322
-98.409670 6.766201 517.397444
-93.405888 6.793641 514.224635
-91.490157 7.041530 527.600113
-85.112116 6.961461 516.484978
-80.486538 7.005852 514.721309
-78.982224 7.319224 532.521113
-70.833708 7.041253 507.523001
-64.636504 6.908320 493.334312
-59.164941 6.822211 482.728237
-231.610479 11.467348 509.833108
-214.119080 13.255674 565.257969
-195.101864 12.462989 528.856053
-178.867267 12.941348 538.573105
-168.387952 13.453117 552.014323
-161.671491 13.374933 546.283955
-157.343607 13.483913 548.219507
-152.200809 13.523750 547.352879
-145.922375 13.458110 542.259185
-141.640775 13.566154 544.182123
-136.797158 13.621345 543.990011
-132.865186 13.765134 547.329894
-124.600617 13.461366 532.948306
-122.571276 13.802153 544.086610
-117.493752 13.819259 542.446078
-111.226032 13.689176 535.081181
-106.287354 13.703472 533.402808
-100.537021 13.605737 527.409072
-96.000025 13.654724 527.133395
-92.537517 13.853240 532.613616
-87.749246 13.864492 530.894189
-80.370633 13.457163 513.246874
-80.364685 14.228004 540.467642
-68.356599 12.950948 490.058024
-63.729475 12.894714 486.026490
-60.247105 13.050813 489.999894
-231.431656 18.369391 509.132279
-195.753805 19.549061 530.197224
-174.288160 19.525660 524.705881
-79.053820 19.591180 504.538706
-92.374873 23.960124 615.834885
-58.930340 16.611050 426.096378
-231.252511 25.253228 508.431583
-195.888360 26.602785 530.167233
-178.768842 27.860539 552.223322
-126.131380 36.691902 714.765392
-231.072993 32.118855 507.730908
-195.245262 33.526049 528.080818
-124.061014 44.956345 702.484309
-230.893154 38.966277 507.030367
-196.935621 40.868001 532.163501
-230.712941 45.795487 506.329847
-196.551575 47.825648 530.762618
-230.532381 52.606489 505.629405
-199.543397 55.667254 538.271454
-230.351500 59.399288 504.929096
-988.016320 -415.100447 1570.978465
-943.363252 -413.037659 1586.272480
-658.512390 -342.511054 1757.428330
-437.084461 -191.483057 1264.408004
-663.834111 -210.268283 1901.032024
-493.421857 -195.665626 1879.459067
-8.719790 -89.798052 1878.658437
24.633461 -54.314465 1173.255990
105.120866 -69.453393 1599.060340
-679.283551 -50.759607 1642.051113
-149.771844 -27.110883 1902.767145
24.157725 -10.950670 1168.796258
162.240492 -11.072121 1850.925126
-941.754026 9.277413 1624.280049
42.118510 26.825781 933.467429
172.655936 41.441456 1294.422572
202.212596 42.806852 1304.545953
-197.912334 116.614450 1871.824314
-11.751865 125.214298 1935.585692
26.680853 91.253126 1397.371631
26.513854 35.087885 530.863916
-11.029459 182.094055 1771.655561
122.168448 196.311371 1895.752115
166.821516 198.374159 1911.046131
168.104782 158.112864 1519.109628
-10.177274 227.144271 1608.942035
48.389529 97.573858 690.815880
48.108462 123.193346 688.181054
91.343834 181.118160 1014.545900
-1022.954256 404.280893 1715.524642
-13.235349 383.162687 1750.976738
81.043094 438.340247 2016.055993
62.912309 394.038305 1538.507739
23.695942 73.832282 288.227265
27.324778 586.206932 1744.945602
70.090793 588.182546 1759.593287
112.856809 590.158160 1774.240973
-187.975893 710.374617 1657.921291
-145.209877 712.350230 1672.568977
9.299682 21.313890 50.610335
-42.771034 575.974904 1245.986880
-11.327325 577.427474 1256.756590
94.760152 185.919732 1020.362553
1844.068204 -377.247671 913.449781
1836.291774 -370.025265 866.320596
298.154730 -57.570743 198.272280
1163.326800 -228.908966 1286.771846
1083.117951 -161.469714 648.822808
1095.392962 -127.459895 686.529553
1081.122972 -123.576884 648.237577
1108.898755 -88.023697 665.394116
318.047547 -24.435135 169.257425
1813.243418 -141.395749 2636.879475
547.765700 -26.503904 377.669759
1091.293335 -49.591168 685.326920
1393.459101 -53.383717 628.167219
1547.999603 -55.168443 595.023050
1601.177578 -55.709651 581.777742
1189.387696 -39.656278 384.981366
1924.630592 -48.020263 2595.751735
359.520888 -5.075000 283.264794
282.347952 -3.924259 214.545602
370.657920 -4.715713 268.563395
518.290152 -6.020319 358.000430
1206.223587 -11.736809 757.761357
1193.782511 -10.924700 717.320338
1173.195166 -4.308079 403.314501
684.101428 17.315457 534.922243
314.040574 7.759291 228.566595
318.776832 7.912085 222.314514
714.985895 56.143530 1228.835556
299.207686 19.155360 247.139753
709.764284 45.497346 555.487233
516.274243 32.270077 357.409060
1225.144351 71.728428 498.715883
1573.666204 91.703412 605.518432
694.203926 93.600436 1196.274678
728.852983 96.634689 1207.134722
1017.958229 132.791686 1617.878260
83.099303 8.726565 78.619656
1207.538932 110.160957 518.648687
1571.068044 141.053127 604.756257
673.531692 128.974279 1163.746086
820.538848 151.475337 1308.748632
754.376537 134.542135 1113.536878
1095.264421 175.136925 1228.647218
652.969127 162.265056 1131.249666
914.481032 222.741319 1519.519064
701.815669 167.843928 1123.191231
736.771118 172.974664 1133.469683
691.630355 159.509227 1023.793589
685.289349 155.301611 975.742749
720.244796 160.432347 986.021202
1050.220498 219.114261 1227.494153
1092.666261 224.486640 1227.885043
1121.914731 217.424098 1076.432979
1140.799368 218.033329 1051.504384
632.516166 193.472745 1098.785304
790.631511 223.805452 1171.730091
718.359486 196.242106 985.468144
974.617128 244.880027 1097.859134
968.747088 239.644302 1049.275065
1009.889628 246.017941 1051.297799
1310.717282 301.140073 1161.187101
612.172939 222.597383 1066.353227
659.245296 230.205624 1060.459858
716.474177 232.051865 984.915085
1008.602364 320.641749 1330.469550
1115.467106 348.447922 1414.380633
1159.051664 355.943666 1413.091520
811.045687 241.192481 916.320834
1013.380930 296.437262 1099.184127
1007.565642 290.159980 1050.616053
1049.485690 297.602025 1051.524171
1103.642830 299.349170 980.034237
591.939317 249.638926 1033.953208
643.052767 265.553822 1078.792993
638.124648 258.261879 1029.142484
714.588868 267.861624 984.362026
1006.004204 369.991464 1329.707375
779.658843 277.093808 954.622697
1005.241655 334.302018 1049.934308
1047.106869 342.785602 1050.826339
857.661069 272.477226 795.500092
871.968289 272.938786 776.613898
571.815429 274.597426 1001.585475
754.393666 321.368884 1040.911059
790.794289 330.719454 1048.927934
762.995349 313.470119 973.489056
792.442049 314.420088 934.618048
821.888748 315.370058 895.747041
1259.501969 460.308074 1215.156447
551.801211 297.472859 969.249913
710.966445 367.144647 1150.997222
737.259209 358.773305 1060.310641
752.398687 359.261714 1040.325829
1216.900565 530.979634 1378.804554
1142.812330 482.491613 1196.709491
1187.064646 493.138818 1194.273496
1203.211397 484.440126 1116.979924
1269.261255 495.790534 1085.770164
531.896629 318.265205 936.946466
693.361025 405.577176 1170.930027
879.349696 483.417469 1316.650065
897.818204 484.013275 1292.270778
1099.893290 531.583852 1249.084276
1120.026313 532.233356 1222.507753
356.586779 -60.544918 435.874110
312.511011 -43.031727 471.184769
463.755900 -56.230535 565.658806
242.684885 -20.793669 382.856188
1920.370250 -107.505626 1337.411527
1955.493171 -107.814045 1309.004378
2633.616993 -140.761237 1627.338542
638.715491 -17.604160 1000.870438
657.167440 -17.766189 985.946642
463.563389 -11.731363 564.937651
1762.083742 -39.389211 1680.683603
1799.838924 -39.720744 1650.147501
1837.594105 -40.052278 1619.611400
2004.091906 -40.430630 1340.550737
2040.092249 -40.746754 1311.433935
465.379868 72.975144 1572.439822
1372.114551 87.998673 1416.135775
705.608807 149.084991 1881.923509
842.037917 157.048474 1915.777476
430.425269 153.013829 1454.762338
1082.965713 445.888429 3231.144569
834.157034 399.903360 2350.498996
871.034797 399.579531 2320.672544
696.989373 294.371231 1669.467452
360.693406 272.108962 1220.071655
686.997626 557.193140 2177.691704
903.401251 587.162965 1857.660922
-496.059976 -476.627251 2182.718622
-414.139929 -136.437704 1856.670591
-382.008776 -27.221338 1725.697729
5.305730 -25.745460 1210.005109
-366.079657 21.631245 1660.092599
6.166812 10.569859 1210.753636
158.363765 14.063096 1888.771036
276.396734 8.114304 1483.830262
364.144323 7.541236 1596.614018
724.773034 -0.903180 1405.521693
234.499168 69.978467 1876.895348
718.827903 232.987372 3461.613158
1081.883512 415.569354 3210.784696
-643.830492 -310.425780 1763.401265
-34.245012 -61.498203 413.820071
-610.050787 -193.970594 1670.131924
-619.817367 -220.620709 1899.024458
58.613304 -43.383835 364.438189
-469.324307 -163.259071 1892.870886
-20.146785 -117.981720 2103.532983
84.217389 -92.274657 1642.590789
117.289185 -92.202149 1641.303663
150.360980 -92.129642 1640.016537
-377.408631 -39.723217 1523.253891
-17.708761 -48.205552 1874.701373
204.581618 -39.606122 1546.284146
1481.610940 -110.973900 4420.156448
-146.981014 2.100209 600.574973
-295.332596 6.606848 1565.494422
-134.090060 8.801078 1924.607925
220.334781 5.666595 1134.362682
664.019110 9.400413 1665.178192
-201.290931 119.479042 1835.297547
-19.174197 128.902332 1965.187193
18.631862 171.206979 1780.797114
54.454995 171.285518 1779.402908
520.155717 172.306526 1761.278231
643.601652 176.974133 1802.125757
717.082142 177.135233 1799.265959
443.968219 243.751033 1900.895463
521.117158 243.920175 1897.892892
654.822064 267.356992 2075.268072
443.828528 302.171379 1900.597168
533.114820 288.017376 1805.847233
569.855065 288.097926 1804.417334
643.335555 288.259026 1801.557536
595.640761 252.280070 1575.226306
731.381500 266.927425 1661.218380
662.593068 230.902204 1435.707974
454.152737 369.178503 1945.521901
520.837776 360.760869 1897.296303
597.986716 360.930011 1894.293731
790.163486 344.223671 1795.553829
496.108478 399.221719 1806.708911
621.375354 409.449149 1847.456683
716.549947 399.705018 1798.129517
711.503628 359.882782 1615.833708
537.524775 579.714515 2306.581871
520.558395 477.601563 1896.699714
696.553698 466.645666 1844.234295
662.273630 364.494724 1435.025850
568.717059 688.896366 2441.825243
532.582626 510.587161 1804.710791
