ply
format ascii 1.0
element vertex 1120
property float x
property float y
property float z
end_header
-75537.736559 -21146.758099 197008.433947
-67507.415775 -21297.174336 197914.987323
273880.265037 -488223.722556 4431732.042381
28856.433630 -23102.169182 208793.627845
44917.075197 -23403.001656 210606.734599
655605.415588 -291676.990981 2619222.118222
755046.378955 -293539.623363 2630448.138148
1044085.833261 -360948.339167 3227827.184145
318939.046820 -99386.800841 886968.772804
218627.395030 -62082.319558 552930.804996
129640.773874 -33846.351126 300849.732678
458374.035230 -110854.942638 983388.137042
152005.598955 -34265.267496 303374.526922
-1164805.465182 -76655.293682 1692913.075114
-1966875.912009 -140244.783676 3058813.139216
-1430863.616348 -110978.295847 2391100.781915
-867181.618751 -73495.314002 1564684.903724
-372845.559590 -34713.404025 730440.346562
-75393.088920 -9713.238123 197624.194832
-67362.768136 -9863.654360 198530.748208
332831.323587 -292505.530682 5341272.593585
177335.528395 -97427.598412 1763515.525894
199728.313745 -80377.458922 1442388.594928
95167.033677 -30377.584010 540533.799588
365663.379439 -83485.594806 1461121.220708
588906.322856 -118238.924171 2052719.324797
69152.685187 -12420.730392 213942.155614
85213.326755 -12721.562866 215755.262368
239637.839777 -33083.672050 556843.297134
495428.821957 -59711.870147 990288.350888
-437058.378124 9105.341726 563139.723519
-544286.546127 11478.627310 794481.630417
-704844.012438 14972.422702 1100952.008853
-1474371.474012 31575.214511 2474761.006055
-739574.079832 15987.743668 1340478.320793
-684262.391267 14951.698374 1346722.529387
-193402.820362 4419.823583 509497.368412
-172764.133776 4033.239577 511827.296633
603542.337261 2989.470998 9607004.373386
485159.501042 -1967.313668 4805848.806167
498128.029831 -4034.181199 3590077.919746
95538.791838 -992.352497 542116.363505
116177.478424 -1378.936503 544446.291726
53236.691259 -686.377942 212744.809746
77327.653610 -1137.626653 215464.469876
3073654.800253 -48871.755288 6153004.562818
-238774.564123 20830.113866 261763.012640
-227592.151583 20620.655681 263025.409762
-205227.326503 20201.739311 265550.204007
-1561508.446785 160870.983337 2147044.951798
-801419.908912 86696.097226 1174856.656391
-897595.515475 102329.332342 1408152.174591
-2332126.654003 281348.988590 3931887.564921
-1159479.507371 148729.975576 2111046.220032
-1539904.054265 211182.786923 3044711.228210
532348.572217 462834.380010 8405860.579133
730438.794998 389965.113412 7207458.703781
627049.625499 239752.299627 4510105.485964
95910.549999 28392.879016 543698.927423
45351.018114 10897.558272 212454.017254
53381.338898 10747.142034 213360.570631
422967.692055 72983.225058 1475847.973205
478279.380620 71947.179763 1482092.181799
442367.299074 58788.084043 1233885.112377
219742.669513 26073.374982 557678.496748
277093.434483 29609.720844 645537.138738
300884.210378 29164.094936 648222.910428
152609.874780 13499.077391 305946.911922
-911074.390538 140343.989137 1002896.646586
-547880.910093 88043.109804 635800.190248
-216208.313768 36332.645792 265145.268551
-1187521.503121 209219.194306 1543025.327463
-193843.488688 35913.729422 267670.062796
-388619.754828 75960.402609 572159.795923
-171478.663608 35494.813052 270194.857040
-1335119.017795 293880.045762 2260938.941225
-863681.683951 203153.338614 1579584.026614
-682269.767217 172456.563532 1355205.073290
-343606.501819 102415.999419 822100.181691
-74959.146003 24587.321805 199471.477487
-66928.825219 24436.905567 200378.030864
674618.090674 1157093.892680 10568159.033921
794209.951646 845468.130041 7806594.237331
757220.364678 582273.203200 5435450.725362
116920.994746 57391.526524 547611.419561
221593.367972 91829.219646 885906.331448
423964.004080 151735.657637 1480089.245157
370025.255646 116347.664038 1147521.654919
321334.521464 89960.964392 897166.240229
-388191.219075 109833.558958 573984.060434
-702366.075087 210838.365562 1111500.517674
-1649342.438885 527524.765620 2805402.332196
-1198327.962706 410368.217508 2201478.866153
-1962483.033999 723630.185140 3916019.614602
-82844.819147 36171.258018 199180.684995
-74814.498364 36020.841781 200087.238372
-66784.177580 35870.425543 200993.791749
597040.805601 1518178.926714 9279969.179046
613527.793632 974327.381145 6007636.043624
633243.793559 729363.776836 4536473.883200
155698.134305 140411.664458 880949.092451
45640.313392 33764.598224 213685.539024
53670.634176 33614.181986 214592.092401
69731.275744 33313.349512 216405.199154
444019.257308 189365.379283 1240917.451591
-655684.682674 275268.093730 1120193.364638
-274470.534060 123507.085658 506507.911199
-233193.160889 122733.917647 511167.767641
-66639.529941 47303.945519 201609.552634
329993.424806 1106450.670527 5089705.349454
558051.577223 1174489.161687 5443811.834728
799660.757951 1224196.263809 5717357.937422
260021.562436 312348.658679 1469839.163281
222791.105294 186503.102263 891005.065161
328860.337068 238748.980142 1149249.758960
481268.316696 308204.477500 1494815.997654
200219.257411 114615.653527 560096.260280
130849.325525 61682.338649 305994.502677
-375056.947000 245049.575096 825994.979332
-182810.319924 309148.229481 1094674.224452
-212502.110812 467670.279846 1667600.547803
-75833.486522 239444.809334 859774.705674
-15540.568363 396281.317732 1442859.392266
35481.522887 147093.557086 543039.398430
116112.930852 303549.086958 1128420.059730
2532099.439092 1499455.526202 5929063.837398
6121003.579590 3079589.800296 12343977.452233
-30430.311042 -26170.974155 45474.452472
-282496.771331 -1143869.797607 1921816.847515
-205550.013819 -1142048.567823 1913956.570153
-28509.260415 -628314.065664 1047682.886580
9839.306249 -442117.603210 735333.267294
99633.472114 -439992.291961 726160.599439
224537.322908 -761291.355912 1253157.759548
109390.697806 -300794.776979 493839.750146
-21522.136613 -107253.071300 199645.629937
-20760.106605 -400322.823315 741699.335776
112803.078330 -1150815.904016 2122108.187184
129460.852525 -271158.246773 494011.867655
218691.002371 -394655.326652 717238.888164
-238360.720804 -175868.255832 378234.586552
-624968.434106 -521773.329228 1117807.544674
-119215.342620 -135631.069828 288276.956277
-368160.974696 -777615.218141 1636080.817517
174722.142988 -390594.153880 802757.347197
50217.481272 -94203.638005 193182.339686
58208.366004 -94014.504145 192366.053563
66199.250736 -93825.370285 191549.767441
-501052.187640 -425546.658721 1031620.777867
-277757.252840 -255438.237700 618180.718145
-523356.454174 -524968.548283 1268277.170308
-322002.026325 -355379.430557 857078.380726
-179380.215366 -220145.122180 530005.303606
-53842.364948 -85315.149634 204677.344139
169601.161964 -211885.186362 494356.102672
190129.478278 -211399.307785 492259.090853
1046916.021581 -1048201.490795 2436012.362761
478273.065969 -435331.961121 1009706.577266
-108586.697698 -103771.580706 289599.980695
-289674.258711 -307642.735212 857355.616996
-329582.370667 -394123.774681 1096828.286842
-118253.428019 -189536.834820 525983.397476
392387.583202 -377035.683829 1023077.497759
338574.916391 -292772.893435 793178.607750
230727.949311 -181276.899002 490334.196542
271784.581938 -180305.141847 486140.172903
503903.646681 -288859.777178 776289.921106
2572968.289790 -1380373.781427 3703543.047905
3487888.871058 -1757888.872013 4708596.176620
-931103.680386 -684866.885452 2266137.295335
-691437.440134 -558896.111078 1847631.781541
-2465197.607207 -2212874.625603 7308735.356869
-598870.489283 -604824.445944 1995785.103739
-139239.905927 -160872.061770 530349.538624
-158149.252922 -257558.170112 847499.641279
-255512.028295 -524518.648147 1724296.318643
-58952.014748 -255210.300358 837366.429293
-16070.008046 -157956.790304 517767.467706
9220.354724 -325775.679241 1066816.390228
51689.175540 -324770.497426 1062478.108517
106376.715542 -251297.184101 820477.742650
107099.889835 -155041.518839 505185.396788
127628.206149 -154555.640262 503088.384969
81645.986089 -59405.416905 192567.049761
370902.684006 -245036.198089 793455.844020
332911.369284 -149696.854487 482118.266772
-1321892.368193 -630273.491133 2552836.947483
-503685.848409 -257979.301306 1044664.465880
-120208.538338 -72438.731671 293195.940239
-324215.961656 -214517.214275 868043.301522
-1119116.646174 -821545.316477 3323562.300862
-429336.138643 -354255.171891 1432789.148078
-225018.723482 -212169.344521 857910.089535
-119169.751208 -131235.531564 530521.656132
-369747.554328 -490094.702432 1980709.701011
-257019.503129 -428605.166294 1731762.364255
4000.146674 -128320.260099 517939.585215
24528.462987 -127834.381522 515842.573395
93210.155221 -263458.674689 1062834.183878
135678.976036 -262453.492875 1058495.902167
178147.796852 -261448.311060 1054157.620457
41513.217726 -49003.857653 197531.765230
204835.975272 -201995.242253 813999.504262
553504.660528 -409421.112343 1648965.571507
2094564.317612 -1235659.882562 4973876.429053
1633342.612464 -874041.000954 3517256.492730
2887701.434953 -1412958.620654 5684295.091667
891223.062051 -401427.756530 1614466.907862
1893084.997427 -789464.669561 3174147.267661
2455081.634103 -952627.137507 3829033.743560
2921216.394431 -1059237.091263 4256280.670322
-1047982.511645 -366531.710460 1899356.369016
-327195.063565 -122152.340214 633477.466122
-1188070.266101 -475929.713990 2470049.372892
-1799818.039572 -778346.730572 4042722.692585
-109331.594487 -56377.327089 293289.218667
-160684.545429 -103056.637091 536984.809100
-289957.073257 -212198.670101 1106573.076347
-159625.209809 -163650.025924 854809.588476
-126559.463751 -162867.402673 851431.851148
-14601.320102 -38980.566121 204129.052946
1380.449362 -38602.298400 202496.480700
24070.301393 -98683.729894 518111.702724
269298.891512 -592981.834216 3116008.449856
502639.059393 -754159.793271 3966488.226714
608767.865662 -691029.400375 3637713.947290
1662552.175649 -1514746.256571 7981130.001607
1611719.483934 -727909.300498 3853193.267515
1490012.909938 -609552.965754 3229759.622689
1508920.082049 -563641.611105 2989378.469651
270410.097156 -92853.186963 492947.560888
290938.413469 -92367.308386 490850.549069
1024802.947826 -302316.932351 1608133.488016
534755.457409 -147214.937645 783877.104573
836943.546851 -215835.627416 1150424.242106
1113516.353340 -269907.970330 1440104.725766
694045.917681 -158599.366720 847088.550558
-673124.301734 -160938.665513 1150311.968816
-397930.785025 -100914.660925 723087.478264
-544776.085635 -147198.725342 1057378.358222
-1023235.110860 -319054.815213 2303592.554503
-630817.708452 -213447.846617 1545103.075461
-696169.727603 -257803.079298 1871069.303204
-902879.557835 -369716.678839 2690410.791451
-604022.502025 -277026.283465 2021301.391806
-441195.421297 -230363.942712 1685377.876135
-30761.434269 -28011.605288 206644.910047
-58501.125455 -71476.592576 528768.879331
-37972.809141 -70990.713998 526671.867511
15314.995173 -347984.206653 2596615.236036
63264.800430 -186317.710717 1394378.485783
266532.240745 -416952.953309 3129710.795224
360873.853961 -382613.695967 2880605.905929
618519.394573 -494238.745247 3732335.303595
638418.597907 -408150.886376 3091721.801163
1263571.707836 -671609.078556 5103247.956788
781019.133190 -244244.147353 1879816.399304
368688.748675 -104173.981808 804420.764815
668333.556593 -171996.519341 1332569.406364
723339.807153 -170694.592853 1326950.399144
290480.251875 -63216.656758 493119.678397
1023295.472992 -206403.450497 1615599.533627
736498.112987 -138276.838926 1086138.559924
1642173.472084 -288074.370777 2270783.004632
1567259.783749 -257741.166532 2038967.909711
1713632.834493 -264978.811224 2103838.149939
1045225.982715 -152373.860619 1214246.468261
-873069.117079 -130340.399638 1495981.809863
-584988.435938 -92273.935183 1065744.354560
-143203.920687 -25571.118140 299158.113336
-120953.435126 -25044.478053 296885.178211
-326429.896986 -73654.997994 879008.222317
-1099817.719612 -273198.317823 3282706.118817
-507042.264787 -140425.800969 1699077.012031
-205692.632185 -64547.709994 786512.771733
-79487.603362 -42811.819526 533135.020479
-22948.894241 -16475.242875 206711.908779
-14958.009509 -16286.109014 205895.622656
1128486.343262 -195458.880388 2734432.535691
1100397.403680 -171125.333899 2416654.367950
1047233.604609 -147385.276759 2101437.651227
722112.149168 -92584.531465 1333030.600486
422866.528875 -49670.531252 722304.096752
832124.650289 -89980.678488 1321792.586046
1291532.535084 -129103.850860 1916158.231413
995821.703249 -92355.775712 1385232.457150
656229.946316 -56646.314821 858789.339388
452616.938561 -36467.190108 558941.271416
476279.612310 -35907.125362 556524.078220
-1870680.808224 -111755.115803 3213868.786206
-399126.925063 -24809.937204 729011.581191
-720733.791051 -46798.618964 1405874.027458
-305116.737235 -20787.755235 638907.044113
-281454.063485 -20227.690489 636489.850916
-916415.957951 -74792.242885 2472379.024229
-991069.587530 -87341.695053 2963012.214504
-236292.045038 -22752.930100 792878.840215
-227970.637256 -24353.056146 872529.983929
1474414.659672 -48754.804133 3596671.057089
1098190.386613 -30703.293924 2427585.024778
1083249.214838 -25665.683177 2187607.717283
104726.916767 -2101.872559 194534.615669
112717.801499 -1912.738699 193718.329546
310092.245001 -4429.474925 495560.925234
734462.522291 -8761.846849 1096220.196203
565607.268136 -5570.098112 791464.288040
1336409.563060 -10688.291845 1759240.873892
1470105.275635 -9320.970978 1826084.761764
1862140.382824 -9027.424095 2188543.496800
-547409.746404 20368.632073 1070422.046235
-143700.518547 6025.050939 301617.605317
-258319.505542 13933.881001 636688.248115
-700902.015071 43289.952482 1894506.824866
-336217.258614 28022.711771 1129688.786345
-228708.615700 22601.015948 876184.957528
-80403.926551 15489.483730 537673.279136
1028700.251342 110781.669940 2526229.305929
1234937.364737 123629.318132 2747683.265376
929760.635471 87196.474694 1889612.132649
432606.305461 38253.480977 808630.210953
309634.083407 24721.176703 497830.054563
531803.543635 40601.350731 798496.998967
404235.359449 29615.693889 569006.838602
427898.033198 30175.758635 566589.645405
451560.706948 30735.823381 564172.452208
-1334714.745324 185553.618019 2616342.122048
-143948.817476 21823.135478 302847.351308
-395996.924179 72721.002387 978033.293929
-951703.136810 194619.005199 2577216.659549
-1248210.780179 287112.218881 3744023.340408
-610891.852349 160037.933174 2055323.109230
-620944.651895 188231.751375 2381069.319072
-60333.771831 45126.013935 537845.396644
2287790.864616 569827.068313 5655848.203003
1613804.629633 369068.282861 3614021.936275
1910918.868624 404532.345804 3908390.370143
104370.227360 20592.584547 196301.185380
597148.958198 110443.352618 1038940.945779
686823.753344 119673.777244 1110960.295569
531065.565191 87555.422825 802151.972566
831504.799050 130206.128358 1177360.638139
1158479.179696 152161.064608 1306319.146752
-1358293.425375 263215.059814 2221520.931478
-1428299.491633 296239.455880 2473229.618531
-943008.630017 226802.495056 1853022.010827
-144197.116406 37621.220017 304077.097298
-259375.737155 81136.894490 641919.428907
-329381.810761 114161.290382 893628.116711
-605290.228493 234795.850869 1818523.347183
-338112.940885 148635.993614 1139077.500488
-382923.493976 193817.184311 1469731.550251
-253175.299253 150646.357244 1130400.937067
-60791.933425 74276.665563 540114.525973
2628822.286931 1028091.019910 6542338.758684
2510111.648866 898116.348080 5657754.780211
1756450.930065 579706.489219 3615245.241537
464196.094632 132944.248416 812562.420822
827214.018349 222459.567063 1346113.391413
1133572.235249 287512.933958 1722414.059534
1471273.952839 353308.142725 2095512.793996
-374722.173952 128033.761154 738122.412471
-832065.847830 453481.236711 2503868.778755
-439157.402521 270625.319210 1481430.758813
-384151.151961 271927.245699 1475811.751593
-254123.140388 210952.998165 1135095.294138
-23840.617759 40260.899891 211128.333056
-40721.778706 103913.195769 540286.643482
-20193.462392 104399.074346 538189.631662
1116052.173677 595668.421819 2796015.041183
847661.865216 413173.407389 1922988.698078
1903846.573982 854508.948008 3943417.206531
770980.109804 299267.701962 1357812.599975
1579043.488412 574600.903917 2585002.571355
2336805.123211 800704.672744 3571755.740812
1042668.423040 337724.132189 1493775.960078
4145393.415869 1211809.697413 5269748.981739
6496473.664952 1811897.466528 7812769.002578
5898823.742002 1573570.423554 6727801.878200
-24018.962462 51608.128444 212011.617911
1224990.029069 756531.159897 2796949.269770
-233027.415112 606208.298733 2050043.439847
-10850.730695 -24452.592087 46042.359905
-70286.845996 -180616.411640 336155.760646
328553.572626 -503093.139325 727744.888917
69014.647399 -96589.639718 137360.825236
57536.225943 -88208.386267 143947.536515
159706.958950 -221880.421637 356271.149340
358233.030240 -454736.269799 718163.447230
-230533.031906 -847772.663907 1869491.405684
-165906.292294 -812894.210952 1771827.730652
-108732.108793 -1625478.163294 3459054.444650
74716.169279 -78272.426789 136480.573235
417670.214724 -404765.054247 693989.218687
217542.584624 -196014.245081 330327.230859
376695.206678 -187380.272330 252280.937155
-23486.013239 -102537.264379 251932.150513
-32754.766599 -214805.530236 521824.263800
-16102.159744 -213902.132278 513658.050584
188567.689177 -174857.508208 346954.018034
969306.983588 -831036.660856 1622507.750277
86164.439657 -68647.408516 131824.344866
-81881.599329 -313861.841437 882206.916079
-50006.157990 -287622.404707 799873.880269
-7675.114407 -89244.410074 245501.558533
240.745221 -88814.977524 241619.728014
23911.241595 -259102.231583 696924.104099
446252.843506 -2442107.949406 6492968.602863
70321.577529 -256584.487478 674165.102944
28832.634533 -62753.684708 160896.935441
74686.018201 -60266.155065 138411.056146
325578.425169 -242736.894905 548990.596590
318745.415784 -145066.798584 285534.511505
-15611.794457 -77239.853419 250716.458109
402.116603 -139608.193987 444063.650868
60342.684517 -283909.636060 884136.696469
17354.213077 -54372.431257 167483.646720
23085.886036 -54061.490051 164672.911808
193542.520893 -360999.704875 1087084.206232
101681.057910 -134113.847690 394397.827602
572039.327356 -656651.841536 1907475.498511
174023.158843 -130189.314621 358922.239555
188491.579030 -129404.408008 351827.121946
418338.062428 -201251.441490 507380.456829
109060.980412 -49397.371970 122511.888130
289770.520337 -123910.061711 302161.298680
318707.360711 -122340.248483 287971.063461
534363.902264 -194957.081230 450482.953941
137719.345204 -47842.665943 108458.213570
1652621.601408 -408319.376947 773971.985938
1023.890114 -328620.214051 1255357.515522
14832.481716 -116096.737272 439405.085214
126614.807738 -498285.600181 1868086.870702
23070.810497 -45058.354189 165638.153263
40265.829372 -44125.530573 157205.948528
116111.423023 -110602.390976 389739.261948
51729.175289 -43503.648162 151584.478704
57460.848247 -43192.706957 148773.743792
63192.521206 -42881.765752 145963.008880
173985.103770 -107462.764521 361358.791511
387599.410830 -219409.306273 728627.386221
202921.944143 -105892.951293 347168.556292
217390.364330 -105108.044680 340073.438683
395071.859852 -166060.348336 522667.819956
260795.624890 -102753.324838 318788.085855
109045.904873 -40394.236108 123477.129585
289732.465264 -101183.511611 304597.850636
120509.250790 -39772.353698 117855.659761
1184597.042380 -370298.990595 1079539.739596
137704.269665 -38839.530081 109423.455026
1418125.453892 -304686.541955 762725.249808
584414.666486 -120492.842765 294953.193047
2935.770590 -847498.555232 4040884.803841
72863.545003 -459854.129375 2176080.873892
122032.748824 -386103.220197 1812985.187668
70138.473702 -147234.591860 685888.690593
119701.599745 -187195.897008 864973.813095
72668.107389 -90230.560717 413461.166733
179217.053485 -183967.204956 835788.239383
500407.206370 -436660.038856 1966419.243846
238732.507225 -180738.512904 806602.665671
51714.099750 -34500.512300 152549.720159
57445.772708 -34189.571095 149738.985247
173947.048697 -84736.214420 363795.343467
2037254.001972 -907737.925150 3856843.763777
264139.612948 -108276.703414 455159.659586
578284.758776 -219184.717089 911277.824557
4039759.512314 -1239820.379710 4976541.426930
289694.410190 -78456.961510 307034.402592
318631.250564 -76887.148283 292844.167373
1037097.226072 -236944.420784 889672.741325
347568.090937 -75317.335055 278653.932154
143420.867085 -29525.453014 107577.961569
205990.634268 -40347.763610 144691.341704
221822.353523 -39488.898510 136927.680666
-47337.694234 -41655.616005 270242.987355
-15674.255724 -39937.885805 254715.665281
-16321.159527 -83115.115062 527679.948374
30350.149879 -145296.411586 913763.518833
29224.791756 -69858.730458 437183.071517
17308.986460 -27363.023671 170379.371086
159440.573436 -62794.570934 373327.013032
357685.145449 -127538.605300 753242.863416
700260.064539 -227594.918614 1335028.199682
539689.036441 -160807.091622 936637.649417
3366718.884105 -924212.115576 5344050.339760
2926049.944662 -743193.081464 4265074.780771
5413530.355621 -1276951.242263 7271277.242394
5574165.550898 -1225094.773654 6919857.295401
5135724.220015 -1054740.409272 5907951.002155
1732654.967137 -333370.855274 1851182.039306
1184314.116420 -201335.159646 1097654.638293
685020.141018 -109780.799013 592722.207998
1082025.779491 -163742.133063 875168.422538
205969.813845 -27913.774405 146024.410761
627001.470305 -80571.697403 416688.539279
711407.330009 -86778.237345 443458.770847
229717.392728 -26625.476755 134378.919205
-66322.780051 -59667.905494 554982.967580
-49670.173195 -58764.507535 546816.754364
-7779.216519 -27074.464050 252166.903819
98.892045 -19292.711425 179776.817277
54713.199051 -178126.015096 1660583.730882
11562.237962 -18670.829014 174155.347453
43655.156869 -46347.273744 432524.505863
483845.693957 -44530.198916 422241.324886
1606489.554200 -138068.904448 1310774.132832
1728020.900965 -138830.244183 1319703.607077
1683440.838633 -126539.967923 1204511.598833
1445680.345957 -95312.173726 909945.448204
-49713.973152 -32607.104092 549621.133922
-15715.896569 -15069.907396 257381.803395
-16408.759440 -30800.308175 533288.707490
467.890694 -57347.179327 1007255.114478
54571.736072 -93644.099622 1669641.180230
29148.681609 -24405.630257 442056.175429
43617.101796 -23620.723643 434961.057819
57400.546090 -7180.163509 152634.709614
131912.294550 -3137.927839 116095.155759
137643.967509 -2826.986633 113284.420847
361922.345904 -6352.778140 278868.470413
376390.766090 -5567.871526 271773.352804
449864.232521 -5505.165341 304634.737440
466516.839377 -4601.767382 296468.524224
483169.446233 -3698.369424 288302.311008
499822.053089 -2794.971465 280136.097791
-47400.155501 -4353.648391 274242.194527
-39484.295873 -3924.215841 270360.364008
-144804.752779 -16034.308009 1222346.406762
-75862.967948 -9834.050343 842254.305671
-33105.166253 -5546.302691 544259.300264
-7820.857364 -2206.485641 254833.041934
173.786162 -3248.893384 458682.962604
59873.068981 -3454.495060 914204.767485
17263.759842 -353.616085 173275.095452
22995.432801 -42.674880 170464.360540
72515.887096 675.639685 423207.374557
3047125.479677 135477.089078 2704365.788050
1291457.294565 57946.088771 1072077.306030
1782288.502291 80637.201570 1385434.634361
830873.657278 37879.972444 605373.329321
1157812.108557 53156.075817 791331.115942
466473.039420 21555.636061 299272.903782
229654.931461 10676.490859 138378.126377
827537.593116 38683.068269 468495.711249
-47420.975923 8080.340814 275575.263584
-94007.209219 20248.691294 646529.574237
-188481.403592 53332.148880 1597941.803843
-134718.149685 53309.663665 1501955.336946
-33148.966209 20611.100753 547063.679821
-16496.359353 21514.498711 538897.466605
74.181842 10656.936114 252284.280473
23422.964722 32497.490067 728187.004497
29072.571462 21047.469944 446929.279341
72477.832022 23402.189785 425643.926513
3800629.627437 428452.869587 3401313.379351
2025489.835203 223404.461224 1695811.019546
2000601.812804 216176.038060 1568772.099175
205886.532156 21822.182414 151356.686990
602954.192059 58058.597722 304749.127757
261297.549548 24828.210264 124183.873360
-557965.397130 241259.998210 3256747.853382
-192212.204878 101844.676048 1327717.143677
-31610.077091 21373.195119 269144.671604
-108685.472615 100005.682637 1216769.988866
-7862.498208 22661.492769 257499.180049
53.361419 23090.925319 253617.349530
23361.930112 68947.455273 732094.867046
46567.098080 70206.327326 720715.366469
28696.954681 18274.538050 169584.108539
6011241.930164 1088149.651986 5424282.115763
4542160.232143 798232.871426 3835135.284589
3038160.710483 519162.350238 2403084.806929
205865.711733 34256.171619 152689.756047
-16583.959267 73829.305597 544506.225721
23300.895503 105397.420480 736002.729596
17218.533225 26655.791501 176170.819818
22950.206183 26966.732706 173360.084906
72401.721875 68855.289986 430517.030425
2543627.595425 634182.558879 2314141.704978
924026.279170 222871.643649 786761.890051
580224.926716 135610.349730 462894.715732
584018.307744 116213.225400 320330.851813
1301885.102938 253171.811423 671816.888646
-1226648.935990 1172349.034480 7222336.377075
-869309.111510 1006477.844591 6057065.911219
21.565868 87657.307018 468429.170428
31989.734627 195252.550990 1018487.096260
90161.584305 277804.098065 1414261.465130
89317.718828 185129.944965 919657.361307
72363.666802 91581.840087 432953.582381
1075756.308476 384202.746683 1213806.464040
-3813.440909 -15931.997712 36279.625823
8767.570488 -72540.185731 149745.271262
26871.614344 -147981.647198 300170.362081
247674.998252 -198931.822114 278549.695633
164040.335280 -125271.023114 170638.245201
87457.098903 -51418.612445 58152.104501
13136.755158 -65024.643311 147192.278272
17518.833053 -64905.569752 144349.362914
39040.273976 -115482.778240 252235.119855
64774.002029 -46567.503084 73076.100474
171828.420509 -111874.545436 166087.527276
39017.291762 -102298.549551 252751.907376
46828.359205 -102086.300563 247684.401930
474047.913721 -317347.421012 580863.260356
64764.471801 -41100.288227 73290.401097
259985.183530 -156792.855045 272154.618765
171805.438294 -98690.316747 166604.314797
489121.216176 -256439.195979 408326.526060
153350.354590 -53817.820560 56508.909171
17493.046602 -50112.632032 144929.207651
61819.890473 -141275.339344 401511.903952
54616.444434 -88689.822885 243133.684006
51798.617776 -35985.133653 81910.241919
55037.698725 -35897.118582 79808.856869
387141.088526 -224802.640261 475796.835864
54593.462219 -75505.594195 243650.471527
902185.315711 -717166.301323 2103110.128785
754728.127601 -552183.611356 1586229.626852
498857.076638 -232423.232179 567975.029976
81358.709297 -220316.077960 922254.136564
187139.744031 -301471.307402 1221815.449849
94658.075462 -126588.443711 504528.386383
98896.183108 -98463.406477 379049.575735
70192.614891 -61896.867529 234032.248156
109247.952107 -60835.622586 208694.720927
117059.019550 -60623.373598 203627.215481
51779.557320 -25050.703937 82338.843164
64735.881118 -24698.643653 73933.302964
259875.880930 -94089.128790 274612.441973
347650.775343 -119713.910232 340396.928840
187358.626538 -58713.132701 158019.666469
195169.693981 -58500.883713 152952.161023
84170.366814 -24170.553228 61324.992663
498548.726420 -106276.957116 201590.659859
513217.773475 -105878.357254 192073.973903
1472618.235132 -285214.456526 469668.468648
8690.211135 -28161.372568 151484.805473
140393.734029 -224579.166890 1172587.354017
147155.191154 -187359.043984 963284.801707
46736.430348 -49349.385805 249751.552015
62358.565234 -48924.887828 239616.541123
142047.683499 -98610.465898 474799.877684
203504.888543 -126569.619505 598861.745317
35574.622346 -20023.564434 93060.069037
124847.104778 -47226.895920 199076.497556
55009.108042 -19495.474008 80451.758736
-10294.095921 -48670.082972 369365.807186
4295.240014 -20883.977267 154617.643200
8677.317910 -20764.903708 151774.727841
67490.888797 -79424.055132 565241.921262
61674.153673 -57670.371004 404789.001563
94565.029081 -73210.438140 506620.665563
25847.849270 -14820.394789 99578.524810
111206.368387 -56324.439408 372654.498867
77957.717906 -35316.161162 229998.317753
35565.092118 -14556.349576 93274.369660
244212.974354 -91055.817918 573761.698503
101390.920235 -34679.414196 214795.801415
51760.496865 -14116.274222 82767.444409
74434.063510 -13500.168725 68057.749058
488821.340288 -84409.110713 415069.658588
623416.881376 -102663.507260 491976.084125
90629.468257 -13060.093370 57550.823808
3903227.693330 -539423.444161 2305604.832461
1857857.010246 -211546.556242 758593.841794
1832565.178002 -201277.926876 692888.796648
157667.966358 -16716.402698 55115.605655
-14997.401071 -45948.704605 537586.221888
4282.346789 -13487.508407 154907.565568
26749.149265 -41265.741319 469372.658505
26660.852643 -27073.782175 304909.636355
67441.002609 -50805.798780 566363.682580
38879.398476 -23193.177415 255852.632503
67188.195571 -33069.716241 360877.265338
22599.238093 -9441.195002 101894.210482
189972.581827 -68767.805398 733650.613844
32316.480941 -9177.149790 95590.055332
35555.561890 -9089.134719 93488.670282
93556.870578 -21707.434495 220380.094382
205202.812089 -43513.826957 435859.292477
45272.804738 -8825.089506 87184.515132
116990.072907 -21070.687530 205177.578045
51750.966637 -8649.059364 82981.745031
54990.047586 -8561.044293 80880.359981
1426087.402668 -95505.079003 630920.678194
1702350.205797 -109289.766445 698472.955988
1432616.295863 -88230.483124 544424.750045
-112.624332 -6210.113105 158040.403295
4269.453563 -6091.039546 155197.487937
17680.442783 -12203.606531 311311.081561
13033.609354 -5852.892428 149511.657220
81020.780043 -26674.921948 682253.644792
67155.124368 -14097.727723 361620.918012
54478.551148 -9584.450748 246234.409132
25828.788814 -3885.965074 100007.126055
85722.820920 -8735.454794 225964.387349
38785.112612 -3533.904790 91601.585854
42024.193561 -3445.889719 89500.200804
48502.355460 -3269.859577 85297.430704
124778.158136 -7674.209852 200626.860120
132589.225579 -7461.960863 195559.354674
144495.946221 -2280.685655 64224.196467
513045.132700 -6839.360379 195956.045346
2063819.141023 -22993.238032 673203.239499
85500.658974 8164.555107 721933.925354
38833.434047 3175.279964 256886.207545
121728.865855 8838.879640 657153.597978
22580.177637 1493.234713 102322.811727
29058.339536 1669.264855 98120.041627
32297.420485 1757.279926 96018.656577
173485.678223 9004.861930 458468.003850
298768.375678 14889.946211 707405.368286
173012.334180 8061.701343 334944.193705
48492.825232 2197.355281 85511.731326
124755.175921 5510.018837 201143.647641
54970.987131 2373.385423 81308.961226
634410.892991 22459.813298 283269.178352
148865.130891 5234.856765 61671.203477
153247.208787 5353.930324 58828.288118
-111047.896517 104104.646821 2049991.578318
-15126.881652 28330.543051 540497.775470
-457.834597 28729.142913 530981.089515
13103.707308 26858.204257 480832.502715
8625.745008 8820.971734 152934.417315
38810.451833 16359.508653 257402.995066
19331.566460 6872.434500 104638.497400
22570.647409 6960.449571 102537.112350
25809.728358 7048.464642 100435.727299
29048.809308 7136.479713 98334.342249
123443.685266 27617.011832 367897.970804
223589.043150 46014.358028 592380.541185
189251.198775 36123.523058 449255.927343
323650.965760 57691.103724 692866.024485
172975.899980 28962.943428 335763.468108
116921.126264 18481.998538 206727.940608
51722.375953 7752.585209 83624.646898
54961.456903 7840.600280 81523.261848
2706941.200834 234424.117321 1214203.666418
304157.821077 25809.199203 126606.750637
153234.315561 12750.399184 59118.210487
161998.471352 12988.546302 53432.379770
-55412.415924 97853.475450 1023238.222241
40116.010844 50423.782670 464177.087217
19322.036232 12339.649358 104852.798022
85653.874277 30817.231274 227514.749912
148173.358423 49191.219715 352649.993859
101276.009163 31241.729251 217379.739021
45234.683827 13043.769925 88041.717621
48473.764776 13131.784996 85940.332571
197705.573138 50537.151311 320515.491163
132520.278936 32090.725205 197109.717237
67908.250472 13659.875422 73332.022270
71147.331422 13747.890493 71230.637220
74386.412371 13835.905564 69129.252170
7605103.985217 1048056.028991 3426848.261533
4729956.765418 636426.924551 1978220.152855
8146427.078362 1071102.923286 3158507.592061
17364.114348 23852.056573 147828.431335
38764.487404 42727.966032 258436.570108
62197.689734 43364.712997 243234.053771
29029.748852 18070.909428 98762.943494
123370.816866 69419.496002 369536.519609
93441.959506 44213.708952 222964.031988
48464.234548 18598.999854 86154.633193
6172711.570065 1166811.820771 2794052.422254
5040104.678101 928699.147570 2117934.753519
30930.437747 55699.945733 264020.863075
16063.894827 23186.064002 107382.784317
19302.975776 23274.079073 105281.399267
54363.640076 56336.692698 248818.346738
93418.977292 57397.937641 223480.819509
160483.543702 91330.186785 346254.916990
45215.623371 23978.199641 88470.318866
116852.179621 58034.684606 208278.303171
54932.866219 24242.244854 82166.163715
71128.270966 24682.320208 71659.238465
46529.590419 69308.672399 254402.639705
5974.472734 -11304.339704 23572.259591
53228.427527 -72610.428651 132821.595404
29029.946338 -37498.074266 66664.219644
87917.405759 -62665.538123 62097.616717
3601.090082 -2420.959573 2143.312931
187552.816029 -122471.359863 101676.661087
3800.182755 -2415.257322 1878.508442
197632.817052 -122182.656640 88269.690956
46572.176959 -28044.286991 18746.382797
164081.247338 -96289.542758 59138.130978
1321.796326 -2248.792447 5201.407038
305618.617522 -374684.855055 760412.507451
83719.474179 -97204.097649 191763.516053
30696.978809 -33845.876342 64849.312931
88182.575435 -56528.238706 62429.143428
40900.615413 -25444.025967 26598.261277
93322.122272 -56381.035970 55593.256133
43217.045571 -25377.680651 23517.278460
98461.669109 -56233.833233 48757.368837
103601.215946 -56086.630497 41921.481542
554605.987307 -278347.893635 157769.224887
223352.886979 -109424.042736 55402.476568
228392.887491 -109279.691125 48698.991502
298811.763172 -139701.235072 53756.470311
889679.615221 -406614.289665 131656.259817
1114164.163091 -1365566.391465 3281615.515886
57056.266578 -65825.739075 154060.304191
196836.531057 -214447.226148 488390.226587
29341.801952 -30280.238089 67054.115155
59676.920797 -58482.825175 125801.088049
55040.690670 -51347.757076 107193.937561
57610.464089 -51274.155708 103775.993913
3024.356030 -1962.580302 2963.411363
36387.268945 -22810.592286 32909.648349
37545.484025 -22777.419628 31369.156941
250987.925748 -147485.568565 193403.432683
258498.153353 -147270.466711 183414.406199
41020.129263 -22677.901654 26747.682714
42178.344343 -22644.728996 25207.191305
43336.559422 -22611.556338 23666.699897
44494.774502 -22578.383680 22126.208488
146887.514446 -126126.807436 308994.938991
113556.410992 -69246.510218 129519.173463
35348.567717 -20077.640631 34599.561195
325736.059069 -178839.312004 294924.296841
370500.680907 -196835.513200 309987.495206
216272.944501 -111287.317348 166973.287708
137444.401537 -68562.329747 97746.798143
91282.688204 -44180.038505 59674.253204
173276.387354 -67536.059041 50088.235162
177257.719111 -67422.028962 44792.839276
341885.622068 -126967.934036 74504.010046
497153.770016 -180355.809220 91796.626016
709085.239357 -251399.092688 108326.498549
758252.799989 -262843.084070 92665.982783
29653.657566 -23062.401911 67444.010666
31164.762230 -23019.122075 65434.156198
928463.329210 -622767.000776 1667666.124889
285468.958649 -155344.386617 351233.126411
225088.665983 -117983.275036 256811.710449
462958.213019 -234026.186773 489585.143591
273238.082278 -133357.279181 267654.818003
204035.549993 -96248.847039 184967.478535
417730.225385 -190646.741577 350048.790928
38942.726806 -17211.998344 30127.508405
3443.085343 -1475.689775 2459.487350
91547.857880 -38042.739088 60005.779915
3940.817025 -1461.434148 1797.476127
117245.592064 -37306.725406 25826.343437
119815.365483 -37233.124038 22408.399790
71964.588164 -21850.566517 11168.085547
134713.147244 -63874.948346 178666.051523
2756.532971 -1257.904642 3399.145543
144793.148268 -63586.245124 165259.081391
198249.714336 -81025.596409 194380.732056
126322.057265 -49887.470942 114660.249775
130303.389022 -49773.440863 109364.853888
300924.060996 -111283.100104 233206.382281
3751.996336 -1229.393387 2075.123098
99522.347810 -31684.635567 50083.475683
102092.121229 -31611.034199 46665.532035
4050.635345 -1220.840010 1677.916365
2069.980598 -1040.119508 4338.803737
2567.712281 -1025.863881 3676.792515
135233.214613 -51838.092498 179316.262465
248313.966219 -91508.696108 305556.255067
186012.319828 -65987.126100 212374.922883
34548.894189 -11812.440350 36588.316914
3065.443963 -1011.608253 3014.781292
38023.539428 -11712.922376 31966.842688
134695.546280 -40150.936265 104583.089988
224721.672932 -64878.444172 160889.299053
142658.209795 -39922.876108 93992.298214
97217.744067 -25620.937519 53832.946042
4160.453665 -980.245872 1558.356602
110066.611160 -25252.930678 36743.227804
50763.905302 -11348.023139 15021.437191
178490.195612 -38896.605401 46333.735234
117775.931415 -25032.126573 26489.396860
54238.550540 -11248.505165 10399.962965
72276.443778 -14632.730340 11557.981058
73787.548442 -14589.450504 9548.126590
25588.126994 -12365.487151 74058.417338
27099.231658 -12322.207315 72048.562870
28610.336322 -12278.927480 70038.708401
30121.440986 -12235.647644 68028.853932
31632.545651 -12192.367809 66018.999464
2279.345255 -796.674245 4086.841731
27719.117563 -9245.351984 45980.686804
99274.385963 -31668.732451 152755.284954
66645.632721 -20366.854520 95179.796527
31193.762801 -9145.834010 41359.212577
2777.076937 -782.418618 3424.830508
411324.223111 -111445.184615 469769.786131
150873.283517 -39368.181817 159856.018210
79494.499814 -19998.847679 78090.078288
160953.284540 -39079.478594 146449.048078
131125.040023 -30756.491823 110392.117861
218935.837275 -49655.193541 170302.552575
311687.088713 -68412.394774 223641.904453
110331.780835 -19115.631261 37074.754515
112901.554254 -19042.029893 33656.810867
49257.594341 -19169.864435 169665.789586
380815.429728 -138279.966554 1198241.562794
25744.054801 -8756.569062 74253.365093
27255.159465 -8713.289226 72243.510625
199995.713535 -56982.199616 450585.269184
291645.528338 -78748.092343 607396.713560
87741.216191 -22502.348166 169155.104601
181155.478918 -44217.705005 323619.733678
87220.723669 -20299.905467 144510.037254
99685.211463 -22160.257931 153268.916941
30155.061573 -6412.882355 43049.125423
69480.575815 -14155.953736 92093.379591
32471.491732 -6346.537040 39968.142605
33629.706811 -6313.364382 38427.651196
77189.896071 -13935.149631 81839.548647
3085.987930 -536.122229 3040.466257
161473.351909 -27042.622746 147099.259020
213150.001617 -34431.942911 179715.806096
87468.989744 -13640.744158 68167.774056
139498.529038 -21019.957146 100314.958073
47528.287765 -5915.292487 19941.754291
1089738.663613 -111323.510992 179321.604941
541345.086744 -53857.598106 72583.397255
358143.072558 -34713.869297 37541.543953
77121.613384 -7285.054655 5918.313163
129749.047880 -29685.277933 444949.410380
189586.024072 -40351.870229 594244.652046
165034.869296 -32801.448188 474311.208984
168260.201926 -31333.471436 444590.023891
28922.191936 -5061.091302 70428.603912
58865.343215 -9705.881373 132327.765967
54327.104980 -8460.262528 112932.568189
56896.878398 -8386.661160 109514.624541
59466.651817 -8313.059792 106096.680893
2399.435558 -318.337095 3980.124451
168654.812856 -20317.374210 240614.683448
242154.042936 -27841.464524 320875.735132
141833.417231 -15583.173343 174563.410226
229145.561074 -24087.244760 261883.817906
127965.359266 -11853.572861 116714.777720
167033.419789 -14861.415287 141045.984896
39540.296059 -3381.376779 30874.615589
90303.932838 -7429.843373 65081.357120
41856.726218 -3315.031463 27793.632772
103152.799931 -7061.836532 47991.638881
105722.573349 -6988.235164 44573.695233
611851.429813 -31008.885375 83470.457208
712775.607584 -34996.293782 76392.159581
600657.615834 -28578.290751 47496.240009
53209.142105 -3430.274775 166154.278516
80827.722116 -4774.639985 231521.087264
1812.429522 -97.700836 4787.380400
1911.975859 -94.849711 4654.978156
259210.843925 -11944.051800 581342.671587
234527.839327 -9981.759667 486546.112258
57162.048074 -2249.361743 109846.151252
59731.821492 -2175.760375 106428.207604
62301.594911 -2102.159007 103010.263957
29235.874195 -913.806387 44888.459705
2608.800214 -74.891832 3728.162444
70010.915166 -1881.354902 92756.433013
2907.439224 -66.338456 3330.955710
77720.235421 -1660.550798 82502.602070
36185.164672 -714.770440 35645.511253
128376.184766 -2345.098341 117228.409706
85429.555677 -1439.746693 72248.771127
3405.170906 -52.082828 2668.944488
3604.263579 -46.380577 2404.139999
335084.613182 -695.511415 46496.693368
75922.364334 -110.498313 8318.063143
619953.551107 -544.254357 50483.976603
23189.628893 1983.625534 78857.917297
307395.513687 25210.832250 956190.254185
32256.256878 2243.304547 66798.790486
33767.361543 2286.584382 64788.936017
2320.433188 154.297803 4138.211660
2419.979525 157.148929 4005.809415
2619.072198 162.851180 3741.004926
31671.818204 1918.663241 41956.898324
2818.164871 168.553431 3476.200437
75415.631678 4403.147251 86252.072429
77985.405097 4476.748619 82834.128782
124805.678508 7049.346101 123037.437578
3216.350217 179.957933 2946.591459
38621.108681 2117.699189 32713.949872
88264.498771 4771.154092 69162.354191
40937.538840 2184.044505 29632.967054
42095.753920 2217.217163 28092.475645
4012.720909 202.766937 1887.373503
1171689.351466 54275.868102 165299.881620
733476.795151 33719.479663 82047.365011
548720.230826 25040.906689 45972.506253
152993.726581 6932.978477 8688.057387
298485.540815 13255.353146 -5489.664994
443211.587790 106141.296793 1500522.790750
251278.773513 56957.293950 778703.138295
143380.876621 30873.907343 407949.679173
29389.975357 5765.662965 71013.447178
27158.471737 4552.096923 48268.285396
28316.686817 4585.269581 46727.793988
65401.707680 10246.041194 100255.373732
67971.481099 10319.642563 96837.430084
109291.176979 16101.700307 144732.653111
223716.580939 32025.164374 275385.471924
2927.983190 409.147569 3356.640675
78250.574772 10614.048035 83165.655493
36424.192373 4817.478186 35944.354126
163553.621384 21104.800646 149700.102788
3326.168536 420.552071 2827.031697
39898.837611 4916.996160 31322.879900
141141.831038 17013.940935 102369.486018
235167.570943 27754.521860 157302.259048
161048.489825 17584.091328 75892.506584
165029.821583 17698.121406 70597.110697
109087.855794 11497.264454 42150.331720
633156.762638 59847.162051 90791.552464
289881.512723 27022.288004 33103.254190
386411.445650 35535.285749 33278.934179
153295.310212 13913.071669 9065.110418
80767.533940 7237.177371 2678.395248
274433.632640 24280.536092 2223.431337
201200.077199 17584.427439 -3224.557713
158414.587929 40945.188953 261105.822924
128793.685171 32131.195215 197274.709192
30752.630826 7417.739209 43796.232607
109702.002479 25610.174828 145246.285097
2838.708837 644.039455 3501.885402
34227.276065 7517.257183 39174.758381
78515.744448 16751.347452 83497.182205
3137.347847 652.592832 3104.678668
37701.921303 7616.775157 34553.284154
38860.136383 7649.947815 33012.792745
40018.351462 7683.120473 31472.301337
41176.566542 7716.293131 29931.809928
3635.079529 666.848459 2442.667446
104213.478632 17487.361134 49317.745727
106783.252051 17560.962502 45899.802079
109353.025469 17634.563870 42481.858431
1893575.377079 269868.606716 275887.140483
968407.898792 135834.903662 112826.287076
787437.792033 108746.260927 69648.129531
2197614.047429 294507.867658 77955.724889
3624786.546044 478764.871181 37850.316599
90206.169192 34548.498955 172236.896517
2450.795475 870.377965 4044.336862
65932.047031 22520.640028 100918.427155
2649.888148 876.080216 3779.532373
2848.980821 881.782467 3514.727884
118075.491494 35346.709505 135169.125310
35505.004995 10316.554154 37783.688409
126038.155009 35574.769662 124578.333537
37821.435154 10382.899470 34702.705591
3346.712503 896.038095 2852.716661
42454.295472 10515.590102 28540.739956
47087.155790 10648.280733 22378.774321
4143.083195 918.847099 1793.498705
169832.804341 36829.100525 66328.978783
257419.333739 177456.088110 860721.256668
57752.182002 32090.969236 138477.390855
278620.287324 141314.252307 572572.148970
154875.191175 75296.649747 295244.015891
2560.613794 1110.972103 3924.777100
30991.658528 12949.987835 44095.075480
32149.873607 12983.160493 42554.584072
33308.088687 13016.333151 41014.092663
34466.303766 13049.505809 39473.601254
3058.345477 1125.227730 3262.765877
36782.733925 13115.851125 36392.618437
134411.644024 45311.304339 114501.173749
89325.177473 29320.351758 70488.461036
268572.699159 85902.892920 196010.043444
185273.825536 57792.774634 124836.795350
47206.669641 13414.405046 22528.195757
4153.355179 1156.590111 1806.341187
109883.364820 29909.162704 43144.911854
2371.793105 1343.012864 4202.424071
66462.386382 34795.238861 101581.480578
614226.176150 280833.325531 703564.918006
1779829.984431 765883.270927 1762148.514487
863801.331630 351214.627087 736862.097821
360264.344883 142576.518871 284766.809302
408566.448520 157509.918001 298789.355737
154625.921852 102392.532438 273016.025096
23768.300372 -15987.245542 43497.292859
2349353.223930 -1368676.552863 3046211.539229
5070354.528975 -2889243.278406 6191527.876775
2901580.442089 -1584012.946012 3132133.902388
3141663.964585 -1679779.831512 3182214.154815
1594671.807378 -835428.288750 1513325.773809
2986795.928795 -1533760.333061 2650908.359968
2183778.038502 -1099608.047573 1809118.078307
129640.726231 -64034.220739 100028.752021
1373179.380540 -665543.264636 984176.108127
956994.710635 -424002.048138 449981.279967
752652.564957 -327822.637181 320465.714509
1381153.842291 -591547.670677 528702.241229
379069.476583 -159693.190411 129338.891085
1053310.957253 -422890.298287 235917.718775
645495.534439 -255155.971870 120872.429609
1085416.372792 -422519.715003 164563.198378
1775459.440473 -660899.865289 90105.738383
1800601.944219 -660609.652830 34226.340274
2353796.219833 -851300.438881 -27917.023706
2977323.806758 -1481668.397575 3649769.153418
1276713.141584 -621630.221538 1472101.651197
1259719.795004 -600371.072723 1364569.901849
124173.960244 -55640.205295 110536.935648
856491.085469 -369016.981905 662452.104141
872543.793239 -368831.690263 626774.843942
2146514.032488 -890509.473702 1427859.013830
1263228.878486 -514509.283692 775571.964800
920701.916548 -368275.815337 519743.063346
2301622.841028 -888719.098757 1083128.554594
145936.064579 -55389.011783 62170.499906
371436.367443 -138607.372813 142193.129024
633278.070243 -221406.261652 141446.770798
160444.134135 -55221.549441 29926.209412
652657.768466 -221182.567547 98375.250032
3175831.797086 -1028815.542850 157290.500152
691417.164911 -220735.179336 12232.208499
